0.090507 -0.000532 -0.115061 0.600000 0.000000 0.300000
-0.869237 -0.000573 0.237260 0.300000 0.600000 0.000000
0.133776 0.026597 -0.167891 0.600000 0.000000 0.300000
-0.487078 0.014119 0.134233 0.300000 0.600000 0.000000
0.158320 -0.025924 0.345951 0.000000 0.500000 0.500000
-0.917756 0.001377 -0.152278 0.500000 0.000000 0.500000
0.038955 -0.025924 0.148805 0.000000 0.500000 0.500000
0.281031 -0.025924 0.423172 0.000000 0.500000 0.500000
0.528592 0.003668 0.276581 0.000000 0.500000 0.500000
-0.526778 0.001380 -0.066051 0.500000 0.000000 0.500000
-0.240796 0.000805 -0.064536 0.300000 0.600000 0.000000
-0.070845 -0.025924 0.124948 0.000000 0.500000 0.500000
0.020905 0.026597 -0.102751 0.600000 0.000000 0.300000
-0.060926 -0.013788 0.103176 0.500000 0.000000 0.500000
-0.285504 0.014687 0.084738 0.300000 0.600000 0.000000
0.546092 0.006056 0.310806 0.000000 0.500000 0.500000
-0.089649 -0.025924 0.097105 0.000000 0.500000 0.500000
-0.740729 0.009483 0.172571 0.300000 0.600000 0.000000
-0.350776 0.001517 -0.032986 0.500000 0.000000 0.500000
0.513846 0.011715 -0.267143 0.600000 0.000000 0.300000
0.185803 -0.025924 0.194572 0.000000 0.500000 0.500000
-0.099255 0.011815 0.146407 0.000000 0.500000 0.500000
0.205449 -0.012979 -0.251746 0.600000 0.000000 0.300000
-0.300631 -0.013788 -0.050967 0.500000 0.000000 0.500000
-0.028403 0.014429 -0.118343 0.300000 0.600000 0.000000
-0.855964 0.000895 -0.153147 0.500000 0.000000 0.500000
-0.774316 0.012462 0.191950 0.300000 0.600000 0.000000
-0.786056 0.001168 -0.154500 0.500000 0.000000 0.500000
-0.581588 -0.009325 -0.043826 0.500000 0.000000 0.500000
0.134602 -0.025924 0.114448 0.000000 0.500000 0.500000
-0.806741 -0.008716 -0.115668 0.500000 0.000000 0.500000
0.541355 0.002004 0.295047 0.000000 0.500000 0.500000
0.197672 0.026597 -0.390002 0.600000 0.000000 0.300000
-0.378811 0.014675 0.054552 0.300000 0.600000 0.000000
-0.431726 -0.013788 -0.065163 0.500000 0.000000 0.500000
-0.764174 0.000409 0.241841 0.300000 0.600000 0.000000
0.402582 0.026597 -0.280865 0.600000 0.000000 0.300000
0.506367 0.023480 -0.428957 0.600000 0.000000 0.300000
0.363782 0.026597 -0.471860 0.600000 0.000000 0.300000
-0.476446 0.001033 -0.099552 0.500000 0.000000 0.500000
-0.314630 -0.013788 -0.076692 0.500000 0.000000 0.500000
0.492683 -0.012979 -0.272453 0.600000 0.000000 0.300000
-0.188658 -0.013788 -0.033280 0.500000 0.000000 0.500000
-0.647117 0.001366 -0.126777 0.500000 0.000000 0.500000
0.256341 -0.025924 0.196088 0.000000 0.500000 0.500000
-0.105956 0.000023 0.011259 0.300000 0.600000 0.000000
0.095974 0.013653 0.116624 0.000000 0.500000 0.500000
0.162237 0.013653 0.282942 0.000000 0.500000 0.500000
0.155286 -0.025924 0.255324 0.000000 0.500000 0.500000
-0.049760 -0.012979 -0.154831 0.600000 0.000000 0.300000
-0.515849 0.000871 -0.049417 0.500000 0.000000 0.500000
-0.866192 0.012677 0.234173 0.300000 0.600000 0.000000
0.051900 0.026597 -0.176221 0.600000 0.000000 0.300000
-0.506914 0.014020 0.091331 0.300000 0.600000 0.000000
0.534305 0.026597 -0.406528 0.600000 0.000000 0.300000
0.150069 -0.012979 -0.347030 0.600000 0.000000 0.300000
0.280003 -0.015608 0.152233 0.000000 0.500000 0.500000
-0.522362 0.014403 0.085924 0.300000 0.600000 0.000000
-0.812029 0.010283 0.206160 0.300000 0.600000 0.000000
-0.805905 0.001085 -0.137673 0.500000 0.000000 0.500000
0.080796 -0.012979 -0.154141 0.600000 0.000000 0.300000
0.341013 -0.025924 0.414687 0.000000 0.500000 0.500000
-0.526777 0.010062 0.075261 0.300000 0.600000 0.000000
0.267518 -0.011303 0.427901 0.000000 0.500000 0.500000
-0.154937 0.013105 -0.105229 0.300000 0.600000 0.000000
0.415829 0.026210 -0.231868 0.600000 0.000000 0.300000
0.533555 0.008011 0.411589 0.000000 0.500000 0.500000
0.400710 -0.024495 0.441758 0.000000 0.500000 0.500000
-0.793953 0.001986 0.188037 0.300000 0.600000 0.000000
0.207118 0.026597 -0.198868 0.600000 0.000000 0.300000
0.026530 0.026597 -0.190695 0.600000 0.000000 0.300000
0.584762 0.019690 -0.320344 0.600000 0.000000 0.300000
0.109051 -0.025924 0.145278 0.000000 0.500000 0.500000
0.167695 0.013653 0.339403 0.000000 0.500000 0.500000
-0.068376 -0.013788 0.118956 0.500000 0.000000 0.500000
0.112071 0.000243 -0.293795 0.600000 0.000000 0.300000
-0.035634 -0.012979 -0.172849 0.600000 0.000000 0.300000
-0.552737 -0.000573 0.147097 0.300000 0.600000 0.000000
-0.107130 0.013317 -0.126562 0.300000 0.600000 0.000000
-0.172060 -0.000573 -0.039007 0.300000 0.600000 0.000000
0.415533 -0.012274 0.398831 0.000000 0.500000 0.500000
0.294209 -0.014309 0.155973 0.000000 0.500000 0.500000
-0.088561 -0.002927 0.055218 0.000000 0.500000 0.500000
-0.765995 -0.013788 -0.124758 0.500000 0.000000 0.500000
0.052269 -0.025924 0.126187 0.000000 0.500000 0.500000
0.317865 -0.012979 -0.210772 0.600000 0.000000 0.300000
-0.794958 -0.013757 -0.166701 0.500000 0.000000 0.500000
-0.495583 0.001117 -0.104761 0.500000 0.000000 0.500000
0.485034 -0.001116 -0.434934 0.600000 0.000000 0.300000
0.083224 0.026597 -0.139275 0.600000 0.000000 0.300000
0.492098 0.026597 -0.438207 0.600000 0.000000 0.300000
0.008909 0.003219 0.080874 0.000000 0.500000 0.500000
0.107002 0.005306 0.269338 0.000000 0.500000 0.500000
0.126453 0.013653 0.285496 0.000000 0.500000 0.500000
0.217102 -0.004072 0.360214 0.000000 0.500000 0.500000
-0.599854 0.014314 0.188048 0.300000 0.600000 0.000000
-0.116511 -0.000573 -0.028665 0.300000 0.600000 0.000000
-0.094707 0.011130 0.053600 0.000000 0.500000 0.500000
-0.403468 0.014687 0.120405 0.300000 0.600000 0.000000
-0.160775 0.003000 0.056958 0.300000 0.600000 0.000000
-0.545811 -0.002422 -0.135157 0.500000 0.000000 0.500000
0.349001 -0.012979 -0.476870 0.600000 0.000000 0.300000
-0.131327 0.014687 -0.011423 0.300000 0.600000 0.000000
0.218758 -0.025924 0.161649 0.000000 0.500000 0.500000
-0.481563 -0.000573 0.060605 0.300000 0.600000 0.000000
-0.110648 0.001182 0.074452 0.500000 0.000000 0.500000
0.267554 -0.012979 -0.217299 0.600000 0.000000 0.300000
0.512778 -0.012979 -0.456193 0.600000 0.000000 0.300000
-0.505705 0.014060 0.119058 0.300000 0.600000 0.000000
0.200088 0.000111 0.228962 0.000000 0.500000 0.500000
-0.703322 -0.013764 -0.090187 0.500000 0.000000 0.500000
-0.894269 0.001152 -0.177851 0.500000 0.000000 0.500000
0.313390 -0.025924 0.430197 0.000000 0.500000 0.500000
0.382760 -0.012979 -0.229116 0.600000 0.000000 0.300000
0.440642 0.013951 -0.299205 0.600000 0.000000 0.300000
-0.392523 -0.013788 -0.045590 0.500000 0.000000 0.500000
-0.029099 0.001026 0.100875 0.500000 0.000000 0.500000
0.178695 -0.025924 0.365176 0.000000 0.500000 0.500000
-0.371453 -0.013788 -0.057731 0.500000 0.000000 0.500000
0.062856 -0.025924 0.116342 0.000000 0.500000 0.500000
-0.136345 -0.012784 0.107653 0.500000 0.000000 0.500000
0.178119 0.015914 -0.406294 0.600000 0.000000 0.300000
-0.211398 -0.013828 0.002246 0.500000 0.000000 0.500000
0.003840 -0.025924 0.140966 0.000000 0.500000 0.500000
0.026166 -0.012979 -0.156125 0.600000 0.000000 0.300000
-0.111095 -0.025924 0.079190 0.000000 0.500000 0.500000
-0.192793 0.001443 -0.007962 0.500000 0.000000 0.500000
-0.683167 0.001127 -0.091889 0.500000 0.000000 0.500000
0.435653 0.015124 -0.239003 0.600000 0.000000 0.300000
-0.880971 -0.012385 -0.143053 0.500000 0.000000 0.500000
-0.259334 0.001409 0.015581 0.500000 0.000000 0.500000
-0.144252 -0.013788 0.033485 0.500000 0.000000 0.500000
0.380831 -0.011053 -0.445705 0.600000 0.000000 0.300000
0.482929 0.026597 -0.459748 0.600000 0.000000 0.300000
0.202291 0.026597 -0.253439 0.600000 0.000000 0.300000
-0.813778 0.010993 0.254570 0.300000 0.600000 0.000000
-0.451236 0.001016 -0.094921 0.500000 0.000000 0.500000
-0.066557 0.026597 -0.061801 0.600000 0.000000 0.300000
0.190713 0.013653 0.196230 0.000000 0.500000 0.500000
0.469881 -0.004527 -0.251321 0.600000 0.000000 0.300000
0.433082 0.026597 -0.259741 0.600000 0.000000 0.300000
-0.636349 0.011670 0.127359 0.300000 0.600000 0.000000
-0.397702 -0.013788 -0.021975 0.500000 0.000000 0.500000
0.242204 -0.005248 -0.417794 0.600000 0.000000 0.300000
-0.931631 0.001289 0.281279 0.300000 0.600000 0.000000
-0.068064 -0.013714 0.081473 0.500000 0.000000 0.500000
-0.410482 -0.013788 -0.018790 0.500000 0.000000 0.500000
-0.612834 0.000965 -0.071480 0.500000 0.000000 0.500000
-0.163453 -0.000573 -0.084022 0.300000 0.600000 0.000000
0.534512 0.026597 -0.317790 0.600000 0.000000 0.300000
0.296278 0.026597 -0.208339 0.600000 0.000000 0.300000
0.426852 0.013653 0.406143 0.000000 0.500000 0.500000
0.256320 0.004163 0.388932 0.000000 0.500000 0.500000
0.381411 -0.012979 -0.248535 0.600000 0.000000 0.300000
-0.690404 -0.013788 -0.094884 0.500000 0.000000 0.500000
-0.521938 0.014054 0.175620 0.300000 0.600000 0.000000
-0.616889 0.014353 0.155405 0.300000 0.600000 0.000000
0.029060 0.001552 -0.208224 0.600000 0.000000 0.300000
-0.170317 0.014687 -0.006024 0.300000 0.600000 0.000000
-0.709605 -0.013788 -0.133392 0.500000 0.000000 0.500000
0.131415 0.000016 0.113121 0.000000 0.500000 0.500000
-0.216453 -0.013788 -0.036324 0.500000 0.000000 0.500000
-0.645226 0.001151 -0.074096 0.500000 0.000000 0.500000
0.134101 0.026597 -0.213675 0.600000 0.000000 0.300000
-0.136511 -0.000573 -0.075231 0.300000 0.600000 0.000000
-0.006614 0.026597 -0.171488 0.600000 0.000000 0.300000
-0.119082 -0.004205 -0.131434 0.600000 0.000000 0.300000
0.238121 -0.012979 -0.445111 0.600000 0.000000 0.300000
0.460822 0.022826 -0.248061 0.600000 0.000000 0.300000
-0.208132 -0.013788 -0.054115 0.500000 0.000000 0.500000
-0.334266 -0.000553 -0.014878 0.300000 0.600000 0.000000
-0.510792 0.001408 -0.025236 0.500000 0.000000 0.500000
-0.025227 -0.012568 0.095545 0.500000 0.000000 0.500000
0.296569 -0.025924 0.191928 0.000000 0.500000 0.500000
-0.149543 -0.000573 0.026362 0.300000 0.600000 0.000000
0.570198 -0.012979 -0.339939 0.600000 0.000000 0.300000
0.148363 0.013653 0.277576 0.000000 0.500000 0.500000
-0.461304 -0.013788 -0.079701 0.500000 0.000000 0.500000
-0.198203 -0.000573 0.017543 0.300000 0.600000 0.000000
0.542910 -0.025924 0.355819 0.000000 0.500000 0.500000
-0.060567 0.026597 -0.151725 0.600000 0.000000 0.300000
0.236006 -0.006014 -0.243484 0.600000 0.000000 0.300000
0.233375 -0.025924 0.182792 0.000000 0.500000 0.500000
-0.150775 -0.013788 0.093366 0.500000 0.000000 0.500000
0.198579 -0.000699 0.130801 0.000000 0.500000 0.500000
0.222258 -0.012979 -0.191297 0.600000 0.000000 0.300000
-0.275724 -0.000573 -0.032424 0.300000 0.600000 0.000000
-0.064071 0.014535 -0.105161 0.300000 0.600000 0.000000
-0.456655 -0.013776 -0.110800 0.500000 0.000000 0.500000
0.031622 -0.012979 -0.114350 0.600000 0.000000 0.300000
0.206814 0.013653 0.395311 0.000000 0.500000 0.500000
0.342363 0.013653 0.434796 0.000000 0.500000 0.500000
0.450322 -0.025924 0.428208 0.000000 0.500000 0.500000
-0.514917 0.001017 0.060552 0.300000 0.600000 0.000000
-0.238600 -0.013891 -0.012168 0.500000 0.000000 0.500000
0.196713 0.013653 0.343426 0.000000 0.500000 0.500000
-0.799490 0.014281 0.224081 0.300000 0.600000 0.000000
0.480323 -0.012979 -0.301989 0.600000 0.000000 0.300000
0.453948 -0.005392 -0.244726 0.600000 0.000000 0.300000
-0.037908 -0.012755 0.137987 0.500000 0.000000 0.500000
0.333592 -0.001969 -0.202324 0.600000 0.000000 0.300000
0.430142 0.018684 -0.224688 0.600000 0.000000 0.300000
0.339455 0.026597 -0.223302 0.600000 0.000000 0.300000
-0.530851 0.014269 0.139175 0.300000 0.600000 0.000000
-0.467340 0.010489 0.048050 0.300000 0.600000 0.000000
0.256674 0.013653 0.178792 0.000000 0.500000 0.500000
0.159033 0.004877 0.120391 0.000000 0.500000 0.500000
-0.181891 -0.013788 0.054451 0.500000 0.000000 0.500000
0.409521 -0.012979 -0.276322 0.600000 0.000000 0.300000
0.168731 -0.012979 -0.371143 0.600000 0.000000 0.300000
0.250939 -0.011017 -0.423077 0.600000 0.000000 0.300000
-0.040883 -0.012979 -0.069633 0.600000 0.000000 0.300000
0.547836 -0.014498 0.400568 0.000000 0.500000 0.500000
0.465106 -0.004755 0.437535 0.000000 0.500000 0.500000
-0.939039 0.007539 0.261554 0.300000 0.600000 0.000000
-0.731450 -0.000571 0.226069 0.300000 0.600000 0.000000
0.147846 -0.012979 -0.323034 0.600000 0.000000 0.300000
-0.194001 -0.013788 0.037452 0.500000 0.000000 0.500000
-0.822834 -0.000572 0.213467 0.300000 0.600000 0.000000
0.556784 0.013653 0.328639 0.000000 0.500000 0.500000
0.378488 0.017093 -0.279033 0.600000 0.000000 0.300000
0.004487 0.001527 0.188287 0.000000 0.500000 0.500000
0.176016 -0.025924 0.312517 0.000000 0.500000 0.500000
0.384871 0.026597 -0.262750 0.600000 0.000000 0.300000
-0.136900 0.006760 -0.114450 0.300000 0.600000 0.000000
-0.121221 -0.006277 -0.108513 0.600000 0.000000 0.300000
-0.152832 -0.000734 0.103787 0.500000 0.000000 0.500000
0.292559 0.007332 0.433653 0.000000 0.500000 0.500000
0.264095 -0.016678 0.211829 0.000000 0.500000 0.500000
0.391405 0.004485 0.239774 0.000000 0.500000 0.500000
0.081444 0.013653 0.205560 0.000000 0.500000 0.500000
0.239073 -0.012000 0.211571 0.000000 0.500000 0.500000
-0.657079 -0.013788 -0.084913 0.500000 0.000000 0.500000
0.036545 -0.025924 0.187892 0.000000 0.500000 0.500000
0.181348 -0.012979 -0.300641 0.600000 0.000000 0.300000
0.500111 0.001050 0.210274 0.000000 0.500000 0.500000
-0.112479 -0.013788 0.094829 0.500000 0.000000 0.500000
-0.154921 -0.000573 -0.013237 0.300000 0.600000 0.000000
-0.180299 0.012071 0.063875 0.300000 0.600000 0.000000
0.364690 0.026597 -0.231130 0.600000 0.000000 0.300000
0.266758 -0.000181 -0.178332 0.600000 0.000000 0.300000
-0.580567 -0.013788 -0.101933 0.500000 0.000000 0.500000
0.044894 0.003808 0.210935 0.000000 0.500000 0.500000
-0.113916 -0.000573 -0.047397 0.300000 0.600000 0.000000
0.387964 0.011245 -0.486227 0.600000 0.000000 0.300000
0.475514 0.013653 0.217695 0.000000 0.500000 0.500000
-0.858892 0.013850 0.263221 0.300000 0.600000 0.000000
-0.840839 0.001445 0.209932 0.300000 0.600000 0.000000
-0.498460 0.014116 0.080750 0.300000 0.600000 0.000000
-0.522556 -0.000573 0.152612 0.300000 0.600000 0.000000
-0.573491 -0.000573 0.099313 0.300000 0.600000 0.000000
0.433043 0.003785 -0.442326 0.600000 0.000000 0.300000
0.526111 0.013403 0.217140 0.000000 0.500000 0.500000
-0.120429 0.011043 0.137859 0.000000 0.500000 0.500000
-0.392972 -0.000573 0.104975 0.300000 0.600000 0.000000
-0.129034 -0.000573 0.033368 0.300000 0.600000 0.000000
0.037084 -0.012979 -0.160120 0.600000 0.000000 0.300000
-0.525811 0.000911 -0.121866 0.500000 0.000000 0.500000
0.585135 -0.002796 0.261477 0.000000 0.500000 0.500000
0.181583 0.007626 -0.318745 0.600000 0.000000 0.300000
-0.045819 -0.008630 0.084498 0.500000 0.000000 0.500000
-0.476945 0.014493 0.096476 0.300000 0.600000 0.000000
-0.143245 0.005385 0.116911 0.000000 0.500000 0.500000
-0.694266 0.006269 0.226360 0.300000 0.600000 0.000000
0.272362 0.026597 -0.193727 0.600000 0.000000 0.300000
0.135325 0.026597 -0.188739 0.600000 0.000000 0.300000
0.305892 -0.002263 -0.258400 0.600000 0.000000 0.300000
-0.018963 0.005816 -0.153963 0.300000 0.600000 0.000000
0.103120 0.026597 -0.130683 0.600000 0.000000 0.300000
0.388810 -0.013430 0.174500 0.000000 0.500000 0.500000
-0.154106 -0.000573 -0.025100 0.300000 0.600000 0.000000
0.559366 -0.025924 0.300991 0.000000 0.500000 0.500000
0.441736 0.018066 -0.487769 0.600000 0.000000 0.300000
-0.976799 -0.013082 -0.188632 0.500000 0.000000 0.500000
-0.834105 -0.007673 -0.123860 0.500000 0.000000 0.500000
0.408733 -0.012979 -0.468041 0.600000 0.000000 0.300000
0.204111 -0.003034 -0.431955 0.600000 0.000000 0.300000
0.185639 0.000610 -0.149212 0.600000 0.000000 0.300000
-0.342547 0.014542 0.087703 0.300000 0.600000 0.000000
-0.455733 -0.013788 -0.053783 0.500000 0.000000 0.500000
0.429647 0.017035 -0.487831 0.600000 0.000000 0.300000
-0.063071 0.013653 0.090886 0.000000 0.500000 0.500000
-0.173537 -0.000573 0.048150 0.300000 0.600000 0.000000
0.125758 -0.000180 -0.318767 0.600000 0.000000 0.300000
-0.250237 0.015204 -0.001201 0.500000 0.500000 0.000000
0.330701 0.013877 -0.479398 0.600000 0.000000 0.300000
-0.255907 0.014679 0.028429 0.300000 0.600000 0.000000
0.544525 -0.018221 0.303339 0.000000 0.500000 0.500000
-0.105934 0.000279 -0.038718 0.300000 0.600000 0.000000
-0.485940 0.000934 -0.027165 0.500000 0.000000 0.500000
-0.793887 -0.013788 -0.128152 0.500000 0.000000 0.500000
-0.372970 -0.013788 -0.026143 0.500000 0.000000 0.500000
0.332019 0.011120 -0.265390 0.600000 0.000000 0.300000
-0.685592 -0.013788 -0.105628 0.500000 0.000000 0.500000
-0.383077 0.009904 0.010007 0.300000 0.600000 0.000000
0.270330 0.026597 -0.447195 0.600000 0.000000 0.300000
-0.312948 0.014573 0.036412 0.300000 0.600000 0.000000
0.184073 0.013653 0.330564 0.000000 0.500000 0.500000
-0.275070 0.014453 0.000446 0.300000 0.600000 0.000000
0.482917 0.013653 0.432748 0.000000 0.500000 0.500000
0.596537 -0.009534 0.299947 0.000000 0.500000 0.500000
0.094722 -0.012979 -0.185402 0.600000 0.000000 0.300000
-0.828313 -0.013788 -0.154450 0.500000 0.000000 0.500000
0.171531 0.026597 -0.196796 0.600000 0.000000 0.300000
0.271185 0.023594 -0.466307 0.600000 0.000000 0.300000
-0.759508 0.014346 0.231439 0.300000 0.600000 0.000000
-0.044486 0.026597 -0.138461 0.600000 0.000000 0.300000
0.190546 0.026597 -0.272440 0.600000 0.000000 0.300000
0.302361 -0.019800 0.222342 0.000000 0.500000 0.500000
-0.147466 -0.013788 -0.024138 0.500000 0.000000 0.500000
0.157395 0.013653 0.298507 0.000000 0.500000 0.500000
-0.653069 -0.000114 0.126344 0.300000 0.600000 0.000000
-0.390252 0.014605 0.087891 0.300000 0.600000 0.000000
0.173890 -0.025924 0.140356 0.000000 0.500000 0.500000
0.024630 -0.025820 0.085013 0.000000 0.500000 0.500000
0.081569 -0.025924 0.184077 0.000000 0.500000 0.500000
0.440588 0.026597 -0.234993 0.600000 0.000000 0.300000
-0.473331 -0.013788 -0.068876 0.500000 0.000000 0.500000
-0.570786 -0.000573 0.159505 0.300000 0.600000 0.000000
-0.551624 -0.013788 -0.096858 0.500000 0.000000 0.500000
-0.343067 -0.000573 0.095209 0.300000 0.600000 0.000000
-0.512747 -0.000573 0.097982 0.300000 0.600000 0.000000
0.404358 -0.016598 0.242705 0.000000 0.500000 0.500000
0.438430 0.026597 -0.280433 0.600000 0.000000 0.300000
-0.037616 0.013653 0.108897 0.000000 0.500000 0.500000
-0.641148 -0.000568 0.199430 0.300000 0.600000 0.000000
-0.595372 0.014290 0.127706 0.300000 0.600000 0.000000
0.418410 -0.012979 -0.487244 0.600000 0.000000 0.300000
0.421103 0.026597 -0.468387 0.600000 0.000000 0.300000
-0.840617 0.001062 -0.151059 0.500000 0.000000 0.500000
-0.349234 0.014687 0.110627 0.300000 0.600000 0.000000
0.313785 0.020064 -0.260947 0.600000 0.000000 0.300000
0.497546 0.000698 0.381356 0.000000 0.500000 0.500000
-0.212924 0.001517 -0.055988 0.500000 0.000000 0.500000
-0.688549 -0.000573 0.153086 0.300000 0.600000 0.000000
0.430502 0.013653 0.213926 0.000000 0.500000 0.500000
-0.312944 -0.000573 0.030407 0.300000 0.600000 0.000000
0.362195 -0.018638 0.441065 0.000000 0.500000 0.500000
-0.422218 -0.000573 0.132865 0.300000 0.600000 0.000000
-0.275834 0.014564 0.039257 0.300000 0.600000 0.000000
0.148179 -0.012979 -0.152202 0.600000 0.000000 0.300000
0.565400 -0.012979 -0.314679 0.600000 0.000000 0.300000
-0.796951 0.012737 0.202658 0.300000 0.600000 0.000000
0.045922 -0.018634 0.211608 0.000000 0.500000 0.500000
0.437421 0.003517 -0.227453 0.600000 0.000000 0.300000
0.125162 0.013653 0.236156 0.000000 0.500000 0.500000
0.178860 -0.025924 0.185256 0.000000 0.500000 0.500000
0.550690 0.013653 0.362091 0.000000 0.500000 0.500000
-0.782535 -0.011343 -0.170981 0.500000 0.000000 0.500000
-0.842828 -0.000687 -0.118676 0.500000 0.000000 0.500000
0.596578 -0.010671 0.315585 0.000000 0.500000 0.500000
0.123164 0.013653 0.222623 0.000000 0.500000 0.500000
0.313486 0.014231 -0.195106 0.600000 0.000000 0.300000
0.586640 0.009505 0.264599 0.000000 0.500000 0.500000
0.056214 0.026597 -0.149002 0.600000 0.000000 0.300000
0.292722 0.013653 0.185639 0.000000 0.500000 0.500000
0.199774 -0.025924 0.376951 0.000000 0.500000 0.500000
-0.391300 0.001516 -0.063164 0.500000 0.000000 0.500000
0.415167 0.001673 -0.218997 0.600000 0.000000 0.300000
0.158500 0.026597 -0.179879 0.600000 0.000000 0.300000
-0.652053 -0.003322 -0.153042 0.500000 0.000000 0.500000
-0.339417 0.013739 0.008586 0.300000 0.600000 0.000000
-0.224919 0.018565 0.005784 0.500000 0.500000 0.000000
0.055960 -0.012979 -0.151790 0.600000 0.000000 0.300000
0.584486 -0.004531 0.354324 0.000000 0.500000 0.500000
0.547819 -0.007071 -0.448941 0.600000 0.000000 0.300000
0.472949 -0.012979 -0.283841 0.600000 0.000000 0.300000
0.146483 -0.025924 0.277095 0.000000 0.500000 0.500000
-0.443447 0.014303 0.115811 0.300000 0.600000 0.000000
0.565029 0.026597 -0.351673 0.600000 0.000000 0.300000
0.444310 -0.025924 0.187523 0.000000 0.500000 0.500000
-0.553179 -0.000573 0.121061 0.300000 0.600000 0.000000
0.201751 0.019631 -0.154996 0.600000 0.000000 0.300000
0.105137 -0.012979 -0.155725 0.600000 0.000000 0.300000
-0.260619 -0.013788 -0.028417 0.500000 0.000000 0.500000
-0.679301 0.001428 -0.072414 0.500000 0.000000 0.500000
-0.082450 -0.008071 -0.150086 0.600000 0.000000 0.300000
0.529893 0.026597 -0.305996 0.600000 0.000000 0.300000
0.189807 0.026597 -0.229085 0.600000 0.000000 0.300000
0.360917 0.026494 -0.445975 0.600000 0.000000 0.300000
-0.090299 -0.013788 0.112044 0.500000 0.000000 0.500000
0.375242 -0.025924 0.409687 0.000000 0.500000 0.500000
0.032485 -0.025924 0.114065 0.000000 0.500000 0.500000
0.587252 -0.015499 0.349058 0.000000 0.500000 0.500000
0.294196 0.004630 -0.188182 0.600000 0.000000 0.300000
0.455153 -0.025924 0.243434 0.000000 0.500000 0.500000
0.316302 0.013653 0.192700 0.000000 0.500000 0.500000
-0.177551 -0.013788 -0.010452 0.500000 0.000000 0.500000
0.382703 -0.012979 -0.469494 0.600000 0.000000 0.300000
0.036406 0.013653 0.182572 0.000000 0.500000 0.500000
0.563590 0.014266 -0.433326 0.600000 0.000000 0.300000
0.141491 -0.012979 -0.222416 0.600000 0.000000 0.300000
0.158596 -0.025924 0.234678 0.000000 0.500000 0.500000
-0.306841 -0.000081 0.103907 0.300000 0.600000 0.000000
-0.003472 0.013653 0.166887 0.000000 0.500000 0.500000
-0.302020 0.001517 -0.061353 0.500000 0.000000 0.500000
-0.255673 -0.013778 0.026742 0.500000 0.000000 0.500000
0.116627 -0.012979 -0.284699 0.600000 0.000000 0.300000
-0.320356 0.001517 -0.077076 0.500000 0.000000 0.500000
-0.015671 -0.012979 -0.144575 0.600000 0.000000 0.300000
-0.285828 -0.013788 -0.031402 0.500000 0.000000 0.500000
0.190252 -0.013321 0.320330 0.000000 0.500000 0.500000
0.148914 -0.010954 0.117727 0.000000 0.500000 0.500000
0.568169 -0.023114 0.238931 0.000000 0.500000 0.500000
0.169407 -0.025924 0.282667 0.000000 0.500000 0.500000
-0.245155 0.014687 0.075869 0.300000 0.600000 0.000000
0.428868 -0.025924 0.220301 0.000000 0.500000 0.500000
-0.025260 0.013653 0.099098 0.000000 0.500000 0.500000
0.296057 -0.012979 -0.458120 0.600000 0.000000 0.300000
0.117940 0.013653 0.174861 0.000000 0.500000 0.500000
-0.576542 -0.001445 -0.034109 0.500000 0.000000 0.500000
-0.547329 -0.000573 0.169279 0.300000 0.600000 0.000000
0.481205 -0.007303 -0.313579 0.600000 0.000000 0.300000
0.373482 0.013167 -0.216644 0.600000 0.000000 0.300000
0.331607 -0.006119 -0.265284 0.600000 0.000000 0.300000
0.454909 0.010867 -0.439706 0.600000 0.000000 0.300000
-0.492711 0.001210 -0.115774 0.500000 0.000000 0.500000
0.258207 -0.012979 -0.197178 0.600000 0.000000 0.300000
0.345842 -0.025924 0.222643 0.000000 0.500000 0.500000
-0.110226 0.014679 -0.050533 0.300000 0.600000 0.000000
-0.730758 0.008419 0.166952 0.300000 0.600000 0.000000
0.212840 0.006539 0.218527 0.000000 0.500000 0.500000
-0.017724 -0.025924 0.153160 0.000000 0.500000 0.500000
0.364331 -0.012702 0.233957 0.000000 0.500000 0.500000
-0.211683 0.003958 -0.080119 0.300000 0.600000 0.000000
-0.457871 -0.013788 -0.036459 0.500000 0.000000 0.500000
-0.537579 -0.013788 -0.063146 0.500000 0.000000 0.500000
-0.809272 -0.000573 0.226858 0.300000 0.600000 0.000000
-0.030829 -0.000573 -0.137477 0.300000 0.600000 0.000000
-0.500630 0.001517 -0.064860 0.500000 0.000000 0.500000
0.466912 0.013653 0.425274 0.000000 0.500000 0.500000
-0.085746 -0.012979 -0.128536 0.600000 0.000000 0.300000
0.099579 0.013653 0.220520 0.000000 0.500000 0.500000
0.301608 0.002635 0.222163 0.000000 0.500000 0.500000
0.196864 -0.000112 -0.153241 0.600000 0.000000 0.300000
-0.552842 0.001363 -0.037080 0.500000 0.000000 0.500000
0.008927 -0.025924 0.163795 0.000000 0.500000 0.500000
0.035568 -0.012979 -0.127827 0.600000 0.000000 0.300000
0.145066 0.013542 -0.359487 0.600000 0.000000 0.300000
0.205526 0.013653 0.359423 0.000000 0.500000 0.500000
-0.332280 0.000983 0.117414 0.300000 0.600000 0.000000
-0.260613 0.001039 0.058442 0.500000 0.000000 0.500000
0.344550 0.022029 -0.268958 0.600000 0.000000 0.300000
0.010667 0.000455 -0.197498 0.600000 0.000000 0.300000
-0.170559 0.001517 0.035431 0.500000 0.000000 0.500000
0.317879 0.013465 -0.443423 0.600000 0.000000 0.300000
0.487379 0.013972 -0.434504 0.600000 0.000000 0.300000
0.140394 0.026597 -0.348971 0.600000 0.000000 0.300000
0.441841 0.001999 0.194885 0.000000 0.500000 0.500000
0.447374 0.026597 -0.267517 0.600000 0.000000 0.300000
-0.468545 -0.013788 -0.105510 0.500000 0.000000 0.500000
-0.128688 0.014687 0.010843 0.300000 0.600000 0.000000
0.542321 -0.004736 -0.380757 0.600000 0.000000 0.300000
-0.339957 -0.013788 -0.013590 0.500000 0.000000 0.500000
-0.030659 0.013687 -0.140247 0.300000 0.600000 0.000000
0.552361 -0.012979 -0.336348 0.600000 0.000000 0.300000
0.544291 -0.012979 -0.414569 0.600000 0.000000 0.300000
-0.714348 0.001253 -0.109887 0.500000 0.000000 0.500000
-0.557441 0.014373 0.104827 0.300000 0.600000 0.000000
0.372821 0.026597 -0.455491 0.600000 0.000000 0.300000
-0.514413 -0.013788 -0.079751 0.500000 0.000000 0.500000
0.017505 -0.012979 -0.195622 0.600000 0.000000 0.300000
0.165820 0.020753 -0.142097 0.600000 0.000000 0.300000
-0.711862 -0.008474 -0.085095 0.500000 0.000000 0.500000
-0.504335 0.012843 0.069336 0.300000 0.600000 0.000000
-0.037721 0.026597 -0.078754 0.600000 0.000000 0.300000
0.337478 0.026597 -0.243193 0.600000 0.000000 0.300000
-0.552347 0.014353 0.155712 0.300000 0.600000 0.000000
0.075632 0.013653 0.227107 0.000000 0.500000 0.500000
0.227158 0.006772 0.369709 0.000000 0.500000 0.500000
0.194995 -0.003652 -0.423728 0.600000 0.000000 0.300000
0.162846 -0.025924 0.177997 0.000000 0.500000 0.500000
-0.988173 -0.009607 -0.193275 0.500000 0.000000 0.500000
0.182329 -0.016558 0.294788 0.000000 0.500000 0.500000
-0.371328 0.014558 0.121740 0.300000 0.600000 0.000000
0.104270 -0.025924 0.111203 0.000000 0.500000 0.500000
-0.017130 -0.025349 0.074020 0.000000 0.500000 0.500000
0.182379 0.014781 -0.327618 0.600000 0.000000 0.300000
-0.030039 0.026597 -0.099678 0.600000 0.000000 0.300000
-0.026041 0.007431 -0.178807 0.600000 0.000000 0.300000
0.314465 -0.012979 -0.471507 0.600000 0.000000 0.300000
0.383782 -0.005413 -0.485907 0.600000 0.000000 0.300000
0.039300 -0.004377 -0.215361 0.600000 0.000000 0.300000
0.062667 -0.012979 -0.139974 0.600000 0.000000 0.300000
0.170641 0.026597 -0.326020 0.600000 0.000000 0.300000
0.505253 -0.020517 0.268595 0.000000 0.500000 0.500000
0.101690 -0.025924 0.245368 0.000000 0.500000 0.500000
-0.139844 -0.000573 -0.098569 0.300000 0.600000 0.000000
-0.300871 -0.013788 -0.010002 0.500000 0.000000 0.500000
0.408101 0.026597 -0.258532 0.600000 0.000000 0.300000
-0.036658 0.016586 -0.069411 0.600000 0.000000 0.300000
0.499135 0.013653 0.417875 0.000000 0.500000 0.500000
-0.372512 -0.013788 -0.008592 0.500000 0.000000 0.500000
0.285739 -0.020545 0.432388 0.000000 0.500000 0.500000
-0.050363 0.013875 -0.100490 0.300000 0.600000 0.000000
-0.327185 -0.013788 -0.063164 0.500000 0.000000 0.500000
0.390215 0.013653 0.423907 0.000000 0.500000 0.500000
0.350961 -0.025924 0.196993 0.000000 0.500000 0.500000
0.002472 0.026597 -0.183222 0.600000 0.000000 0.300000
-0.651847 -0.008153 -0.065526 0.500000 0.000000 0.500000
-0.290182 -0.000573 0.084122 0.300000 0.600000 0.000000
-0.829013 0.001372 -0.128089 0.500000 0.000000 0.500000
0.230229 0.012625 -0.408847 0.600000 0.000000 0.300000
0.405364 0.026597 -0.453940 0.600000 0.000000 0.300000
-0.299583 0.005631 -0.032383 0.300000 0.600000 0.000000
0.136124 0.013653 0.249483 0.000000 0.500000 0.500000
0.331694 0.026597 -0.469069 0.600000 0.000000 0.300000
0.212462 -0.012979 -0.235590 0.600000 0.000000 0.300000
0.102996 0.000493 0.105641 0.000000 0.500000 0.500000
-0.948887 0.000383 -0.186552 0.500000 0.000000 0.500000
0.409601 0.013653 0.416612 0.000000 0.500000 0.500000
0.052168 -0.006023 0.216137 0.000000 0.500000 0.500000
-0.391190 -0.000573 0.123891 0.300000 0.600000 0.000000
-0.096210 -0.000139 -0.130072 0.300000 0.600000 0.000000
-0.312309 0.012614 0.110423 0.300000 0.600000 0.000000
-0.966396 -0.009452 -0.167605 0.500000 0.000000 0.500000
-0.623397 -0.010244 -0.148280 0.500000 0.000000 0.500000
0.495835 0.005349 0.265931 0.000000 0.500000 0.500000
-0.397153 0.001444 -0.101773 0.500000 0.000000 0.500000
-0.239859 0.014687 0.052543 0.300000 0.600000 0.000000
-0.831924 0.014287 0.234449 0.300000 0.600000 0.000000
-0.505794 0.012274 0.172431 0.300000 0.600000 0.000000
-0.124600 -0.010395 0.005400 0.500000 0.000000 0.500000
-0.448416 -0.013788 -0.017374 0.500000 0.000000 0.500000
-0.720113 0.001230 -0.132776 0.500000 0.000000 0.500000
0.177524 -0.025924 0.351588 0.000000 0.500000 0.500000
-0.206500 0.014257 -0.066127 0.300000 0.600000 0.000000
-0.022009 0.026597 -0.113670 0.600000 0.000000 0.300000
0.132402 -0.014781 0.308327 0.000000 0.500000 0.500000
-0.126157 -0.025924 0.133659 0.000000 0.500000 0.500000
0.532354 0.013653 0.241739 0.000000 0.500000 0.500000
0.016330 -0.001783 -0.088433 0.600000 0.000000 0.300000
0.181114 0.026597 -0.349676 0.600000 0.000000 0.300000
-0.092409 -0.009438 0.149170 0.000000 0.500000 0.500000
0.397070 0.011055 -0.219252 0.600000 0.000000 0.300000
-0.208171 -0.013788 -0.019784 0.500000 0.000000 0.500000
-0.154060 -0.000573 0.001815 0.300000 0.600000 0.000000
-0.048714 -0.000186 -0.149789 0.300000 0.600000 0.000000
-0.092470 -0.012979 -0.077406 0.600000 0.000000 0.300000
0.489306 0.013653 0.260786 0.000000 0.500000 0.500000
-0.075506 0.026597 -0.072574 0.600000 0.000000 0.300000
0.277979 0.025076 -0.247295 0.600000 0.000000 0.300000
-0.474823 -0.000573 0.106226 0.300000 0.600000 0.000000
-0.055305 -0.025924 0.090898 0.000000 0.500000 0.500000
0.161911 0.013653 0.151681 0.000000 0.500000 0.500000
-0.466768 0.001514 -0.008718 0.500000 0.000000 0.500000
-0.887035 -0.013788 -0.163098 0.500000 0.000000 0.500000
0.167344 -0.012979 -0.261127 0.600000 0.000000 0.300000
0.310230 -0.012979 -0.196562 0.600000 0.000000 0.300000
0.369427 0.025379 -0.484604 0.600000 0.000000 0.300000
0.539754 -0.009568 0.291511 0.000000 0.500000 0.500000
0.060715 0.013653 0.118459 0.000000 0.500000 0.500000
0.353064 0.026597 -0.257187 0.600000 0.000000 0.300000
0.573053 -0.025924 0.259613 0.000000 0.500000 0.500000
0.469572 -0.012979 -0.469018 0.600000 0.000000 0.300000
-0.371361 -0.000573 0.094930 0.300000 0.600000 0.000000
0.351664 -0.003195 -0.482547 0.600000 0.000000 0.300000
0.408223 -0.019032 0.186007 0.000000 0.500000 0.500000
-0.386472 0.001517 -0.028364 0.500000 0.000000 0.500000
0.126175 0.026597 -0.315809 0.600000 0.000000 0.300000
0.440484 0.013653 0.247314 0.000000 0.500000 0.500000
-0.289748 -0.013788 -0.004928 0.500000 0.000000 0.500000
-0.231075 -0.013721 -0.068416 0.500000 0.000000 0.500000
-0.549252 0.000820 -0.057741 0.500000 0.000000 0.500000
0.431641 0.013653 0.417001 0.000000 0.500000 0.500000
0.301850 -0.012979 -0.243856 0.600000 0.000000 0.300000
0.423894 -0.003881 0.397518 0.000000 0.500000 0.500000
-0.454714 -0.000573 0.055878 0.300000 0.600000 0.000000
-0.157462 -0.012890 -0.050131 0.500000 0.000000 0.500000
0.435828 -0.025924 0.232831 0.000000 0.500000 0.500000
0.138980 0.026597 -0.234054 0.600000 0.000000 0.300000
-0.721713 0.001241 -0.094318 0.500000 0.000000 0.500000
0.360226 0.013653 0.205815 0.000000 0.500000 0.500000
0.257094 -0.025924 0.173389 0.000000 0.500000 0.500000
-0.327694 0.001437 0.038811 0.500000 0.000000 0.500000
-0.329179 0.001355 -0.005079 0.500000 0.000000 0.500000
-0.293444 -0.000573 0.041415 0.300000 0.600000 0.000000
-0.784958 0.007704 0.191102 0.300000 0.600000 0.000000
-0.462352 0.001253 -0.090871 0.500000 0.000000 0.500000
-0.671891 0.013125 0.145399 0.300000 0.600000 0.000000
-0.636970 -0.013788 -0.127341 0.500000 0.000000 0.500000
0.315127 -0.024946 0.404135 0.000000 0.500000 0.500000
-0.265612 0.013805 -0.022335 0.300000 0.600000 0.000000
-0.401627 0.014334 0.107302 0.300000 0.600000 0.000000
0.214894 0.010291 -0.394208 0.600000 0.000000 0.300000
-0.415852 -0.000573 0.047069 0.300000 0.600000 0.000000
0.161949 0.013653 0.252549 0.000000 0.500000 0.500000
0.219072 0.008678 0.136195 0.000000 0.500000 0.500000
0.551093 0.026597 -0.358744 0.600000 0.000000 0.300000
0.111655 0.013653 0.247397 0.000000 0.500000 0.500000
0.085687 -0.025924 0.147395 0.000000 0.500000 0.500000
-0.440943 -0.007664 0.002475 0.500000 0.000000 0.500000
0.094205 -0.012979 -0.254335 0.600000 0.000000 0.300000
0.355516 0.004629 0.440680 0.000000 0.500000 0.500000
-0.088267 -0.021173 0.055295 0.000000 0.500000 0.500000
0.234072 -0.011884 -0.412069 0.600000 0.000000 0.300000
0.165840 0.004843 0.358560 0.000000 0.500000 0.500000
0.156054 0.026597 -0.333429 0.600000 0.000000 0.300000
-0.213107 -0.013808 0.032627 0.500000 0.000000 0.500000
0.375317 0.013653 0.413897 0.000000 0.500000 0.500000
-0.025237 0.000917 0.111571 0.500000 0.000000 0.500000
0.341450 0.013653 0.214895 0.000000 0.500000 0.500000
-0.205690 -0.013788 0.064716 0.500000 0.000000 0.500000
0.185739 0.001275 -0.341906 0.600000 0.000000 0.300000
-0.633081 -0.013788 -0.073486 0.500000 0.000000 0.500000
0.152724 0.013653 0.316684 0.000000 0.500000 0.500000
0.190757 0.015492 -0.419635 0.600000 0.000000 0.300000
-0.085916 -0.000573 -0.110732 0.300000 0.600000 0.000000
-0.589444 -0.000573 0.136455 0.300000 0.600000 0.000000
-0.076881 0.013653 0.071938 0.000000 0.500000 0.500000
0.038669 0.026597 -0.214538 0.600000 0.000000 0.300000
-0.028099 -0.012979 -0.089016 0.600000 0.000000 0.300000
0.193669 -0.012979 -0.164237 0.600000 0.000000 0.300000
-0.078895 -0.000573 -0.124583 0.300000 0.600000 0.000000
-0.073398 0.000517 0.116184 0.500000 0.000000 0.500000
0.196554 0.024883 -0.367789 0.600000 0.000000 0.300000
-0.607933 0.001200 -0.058398 0.500000 0.000000 0.500000
-0.600437 0.014305 0.139278 0.300000 0.600000 0.000000
0.390131 0.013653 0.219138 0.000000 0.500000 0.500000
-0.936497 0.001247 -0.160915 0.500000 0.000000 0.500000
0.556990 -0.014339 0.229231 0.000000 0.500000 0.500000
0.179664 0.026597 -0.388015 0.600000 0.000000 0.300000
0.214230 0.013653 0.204222 0.000000 0.500000 0.500000
0.222465 -0.002728 -0.444815 0.600000 0.000000 0.300000
-0.136865 0.014058 -0.077338 0.300000 0.600000 0.000000
0.198772 0.003176 -0.371913 0.600000 0.000000 0.300000
0.518680 0.013653 0.408513 0.000000 0.500000 0.500000
-0.364894 -0.000573 0.116832 0.300000 0.600000 0.000000
-0.405606 0.014290 0.053849 0.300000 0.600000 0.000000
-0.062851 0.000466 -0.089318 0.300000 0.600000 0.000000
0.096415 0.000381 -0.271088 0.600000 0.000000 0.300000
0.584322 0.005416 -0.402416 0.600000 0.000000 0.300000
-0.754960 -0.000569 0.179432 0.300000 0.600000 0.000000
0.136305 0.013653 0.305888 0.000000 0.500000 0.500000
0.271138 0.012972 0.428913 0.000000 0.500000 0.500000
0.522541 0.005461 0.369720 0.000000 0.500000 0.500000
0.245879 0.013653 0.409317 0.000000 0.500000 0.500000
-0.101343 0.008054 0.000590 0.300000 0.600000 0.000000
-0.488934 -0.000573 0.090951 0.300000 0.600000 0.000000
0.534607 0.025514 -0.341954 0.600000 0.000000 0.300000
0.508599 -0.012979 -0.318252 0.600000 0.000000 0.300000
-0.121943 0.011952 0.040994 0.300000 0.600000 0.000000
-0.554694 0.014237 0.120674 0.300000 0.600000 0.000000
0.140683 0.013653 0.166324 0.000000 0.500000 0.500000
-0.131200 0.014687 -0.058718 0.300000 0.600000 0.000000
0.458118 -0.001320 0.391059 0.000000 0.500000 0.500000
-0.413298 0.014312 0.099894 0.300000 0.600000 0.000000
0.058979 -0.021133 0.094054 0.000000 0.500000 0.500000
0.126850 -0.012979 -0.244930 0.600000 0.000000 0.300000
0.278690 -0.007235 -0.247541 0.600000 0.000000 0.300000
-0.234419 -0.003251 -0.072474 0.500000 0.000000 0.500000
-0.902963 0.014377 0.264040 0.300000 0.600000 0.000000
0.273648 0.000331 -0.433297 0.600000 0.000000 0.300000
0.201360 -0.025924 0.207259 0.000000 0.500000 0.500000
0.255777 0.006006 0.211053 0.000000 0.500000 0.500000
-0.086327 0.004125 -0.148112 0.600000 0.000000 0.300000
0.204493 -0.020664 0.223908 0.000000 0.500000 0.500000
-0.077050 -0.025924 0.151835 0.000000 0.500000 0.500000
-0.530767 -0.013788 -0.041800 0.500000 0.000000 0.500000
0.106902 0.026597 -0.253474 0.600000 0.000000 0.300000
-0.466665 -0.000573 0.120195 0.300000 0.600000 0.000000
0.132386 0.010376 -0.130095 0.600000 0.000000 0.300000
0.278493 0.013653 0.420355 0.000000 0.500000 0.500000
-0.354887 -0.010269 -0.098820 0.500000 0.000000 0.500000
-0.537365 -0.000573 0.133211 0.300000 0.600000 0.000000
-0.207677 0.014687 0.033579 0.300000 0.600000 0.000000
-0.124092 0.014526 -0.071326 0.300000 0.600000 0.000000
-0.121575 0.001314 -0.119910 0.300000 0.600000 0.000000
0.185328 0.013653 0.368499 0.000000 0.500000 0.500000
0.423433 -0.004857 -0.222138 0.600000 0.000000 0.300000
-0.161437 0.014687 -0.048169 0.300000 0.600000 0.000000
-0.325711 -0.000573 0.071638 0.300000 0.600000 0.000000
0.411878 -0.010989 -0.444164 0.600000 0.000000 0.300000
0.282600 -0.012979 -0.442400 0.600000 0.000000 0.300000
0.154007 -0.025924 0.321115 0.000000 0.500000 0.500000
-0.451074 -0.000573 0.113582 0.300000 0.600000 0.000000
-0.589263 0.001506 -0.096546 0.500000 0.000000 0.500000
-0.737678 -0.000573 0.217117 0.300000 0.600000 0.000000
-0.163441 0.014480 -0.031809 0.300000 0.600000 0.000000
-0.612203 0.014189 0.137779 0.300000 0.600000 0.000000
-0.394396 -0.013788 -0.089897 0.500000 0.000000 0.500000
-0.262457 0.001517 -0.066451 0.500000 0.000000 0.500000
-0.291003 -0.013788 -0.056076 0.500000 0.000000 0.500000
-0.423081 0.014497 0.076558 0.300000 0.600000 0.000000
0.561404 -0.025924 0.318206 0.000000 0.500000 0.500000
0.039901 -0.025924 0.102498 0.000000 0.500000 0.500000
0.544388 0.013653 0.384951 0.000000 0.500000 0.500000
-0.204685 0.000912 0.085399 0.500000 0.000000 0.500000
-0.091061 0.009055 -0.068335 0.300000 0.600000 0.000000
-0.457507 0.014396 0.089709 0.300000 0.600000 0.000000
0.128689 0.026597 -0.139141 0.600000 0.000000 0.300000
0.377882 0.026597 -0.229801 0.600000 0.000000 0.300000
-0.201002 0.013928 -0.048749 0.300000 0.600000 0.000000
-0.279045 -0.000573 0.079054 0.300000 0.600000 0.000000
0.516540 0.026597 -0.437846 0.600000 0.000000 0.300000
0.571267 -0.012979 -0.417167 0.600000 0.000000 0.300000
-0.400210 -0.004010 0.018692 0.500000 0.000000 0.500000
0.500177 0.003302 0.428798 0.000000 0.500000 0.500000
-0.036827 -0.003279 0.171609 0.000000 0.500000 0.500000
-0.510064 0.014314 0.142610 0.300000 0.600000 0.000000
-0.420997 -0.013788 -0.102801 0.500000 0.000000 0.500000
-0.137928 -0.000573 -0.048049 0.300000 0.600000 0.000000
0.296644 -0.007458 0.434307 0.000000 0.500000 0.500000
-0.533848 -0.013788 -0.102547 0.500000 0.000000 0.500000
-0.110421 0.001301 0.061685 0.500000 0.000000 0.500000
0.332689 -0.000945 0.227651 0.000000 0.500000 0.500000
0.021945 -0.011482 0.196825 0.000000 0.500000 0.500000
-0.477542 0.000626 -0.001024 0.500000 0.000000 0.500000
0.508792 0.001597 -0.265324 0.600000 0.000000 0.300000
-0.720591 -0.000573 0.198278 0.300000 0.600000 0.000000
0.417434 0.010364 0.245747 0.000000 0.500000 0.500000
0.529927 0.026597 -0.428108 0.600000 0.000000 0.300000
0.397372 -0.012979 -0.454927 0.600000 0.000000 0.300000
0.075993 -0.000905 0.098533 0.000000 0.500000 0.500000
-0.296122 0.001029 0.018905 0.500000 0.000000 0.500000
-0.377227 0.013844 0.024712 0.300000 0.600000 0.000000
0.131766 -0.012979 -0.259971 0.600000 0.000000 0.300000
-0.330925 -0.013788 -0.049842 0.500000 0.000000 0.500000
-0.338611 0.001494 -0.048285 0.500000 0.000000 0.500000
0.155856 -0.025924 0.283483 0.000000 0.500000 0.500000
-0.373768 -0.000557 0.005681 0.300000 0.600000 0.000000
0.175481 -0.012979 -0.331970 0.600000 0.000000 0.300000
-0.607333 0.014180 0.161323 0.300000 0.600000 0.000000
-0.266096 0.014687 0.069052 0.300000 0.600000 0.000000
0.078504 -0.002795 -0.249970 0.600000 0.000000 0.300000
0.151133 -0.012979 -0.216249 0.600000 0.000000 0.300000
0.353407 -0.014600 0.231724 0.000000 0.500000 0.500000
0.494101 -0.012979 -0.443364 0.600000 0.000000 0.300000
-0.061767 0.013653 0.148295 0.000000 0.500000 0.500000
-0.687046 -0.000573 0.175412 0.300000 0.600000 0.000000
0.426762 -0.005674 -0.235803 0.600000 0.000000 0.300000
-0.066369 -0.015555 0.061059 0.000000 0.500000 0.500000
-0.501036 0.000838 -0.044238 0.500000 0.000000 0.500000
-0.435485 -0.000573 0.084083 0.300000 0.600000 0.000000
-0.496755 0.000999 -0.008888 0.500000 0.000000 0.500000
0.188519 0.013653 0.137228 0.000000 0.500000 0.500000
0.252548 -0.022103 0.387090 0.000000 0.500000 0.500000
-0.128351 0.001177 0.008242 0.500000 0.000000 0.500000
-0.202698 -0.013788 0.078827 0.500000 0.000000 0.500000
-0.870389 0.000804 -0.175121 0.500000 0.000000 0.500000
0.456931 -0.003281 -0.487073 0.600000 0.000000 0.300000
0.261736 -0.012979 -0.453505 0.600000 0.000000 0.300000
0.338896 -0.012979 -0.454919 0.600000 0.000000 0.300000
-0.432306 0.005075 0.027954 0.300000 0.600000 0.000000
0.112602 -0.025924 0.198910 0.000000 0.500000 0.500000
0.127511 -0.025924 0.241330 0.000000 0.500000 0.500000
0.275494 -0.012979 -0.238340 0.600000 0.000000 0.300000
-0.049222 0.013653 0.089628 0.000000 0.500000 0.500000
-0.442052 -0.013788 -0.103326 0.500000 0.000000 0.500000
-0.390363 -0.000573 0.086781 0.300000 0.600000 0.000000
-0.060289 0.013653 0.108859 0.000000 0.500000 0.500000
-0.385113 -0.012526 -0.103755 0.500000 0.000000 0.500000
-0.056828 0.006659 -0.163132 0.600000 0.000000 0.300000
-0.930637 -0.013752 -0.183169 0.500000 0.000000 0.500000
-0.358032 0.014426 0.064142 0.300000 0.600000 0.000000
-0.007853 0.015420 -0.188068 0.600000 0.000000 0.300000
0.264079 0.025855 -0.243904 0.600000 0.000000 0.300000
-0.110000 0.014570 -0.073186 0.300000 0.600000 0.000000
-0.662533 -0.013788 -0.105205 0.500000 0.000000 0.500000
-0.675934 -0.013788 -0.116182 0.500000 0.000000 0.500000
-0.473980 -0.000573 0.082000 0.300000 0.600000 0.000000
0.282426 0.020093 -0.436068 0.600000 0.000000 0.300000
0.022584 0.026597 -0.127622 0.600000 0.000000 0.300000
-0.046469 -0.008731 0.167716 0.000000 0.500000 0.500000
-0.245535 0.014212 -0.024018 0.300000 0.600000 0.000000
0.455505 0.026597 -0.444959 0.600000 0.000000 0.300000
-0.062359 -0.025924 0.131605 0.000000 0.500000 0.500000
0.533613 -0.025924 0.264277 0.000000 0.500000 0.500000
-0.759966 -0.000256 -0.091259 0.500000 0.000000 0.500000
-0.227183 0.001403 0.026498 0.500000 0.000000 0.500000
-0.139195 0.000526 0.092867 0.500000 0.000000 0.500000
0.151829 -0.012979 -0.363838 0.600000 0.000000 0.300000
0.385410 0.013653 0.238408 0.000000 0.500000 0.500000
-0.607757 0.001406 -0.138799 0.500000 0.000000 0.500000
0.241882 -0.012015 0.380861 0.000000 0.500000 0.500000
0.085172 0.013653 0.133725 0.000000 0.500000 0.500000
0.233045 0.016830 -0.450737 0.600000 0.000000 0.300000
-0.964022 -0.000398 -0.189727 0.500000 0.000000 0.500000
-0.360717 0.009912 -0.000829 0.300000 0.600000 0.000000
0.498601 0.018695 -0.320052 0.600000 0.000000 0.300000
0.399709 -0.025924 0.183172 0.000000 0.500000 0.500000
0.056505 -0.012979 -0.197809 0.600000 0.000000 0.300000
0.351021 0.013653 0.416813 0.000000 0.500000 0.500000
0.009643 -0.012979 -0.184651 0.600000 0.000000 0.300000
-0.494789 0.014246 0.102604 0.300000 0.600000 0.000000
0.515842 -0.025924 0.379902 0.000000 0.500000 0.500000
-0.010517 0.013653 0.181320 0.000000 0.500000 0.500000
-0.182883 -0.000573 0.053469 0.300000 0.600000 0.000000
0.207187 -0.012979 -0.211783 0.600000 0.000000 0.300000
-0.269734 -0.013788 0.036884 0.500000 0.000000 0.500000
0.142064 -0.012979 -0.267499 0.600000 0.000000 0.300000
0.113231 0.013653 0.162382 0.000000 0.500000 0.500000
-0.785401 0.001354 -0.112005 0.500000 0.000000 0.500000
0.070237 -0.012979 -0.112556 0.600000 0.000000 0.300000
0.065800 -0.025924 0.148034 0.000000 0.500000 0.500000
0.537651 0.013653 0.282977 0.000000 0.500000 0.500000
0.349872 -0.012979 -0.243519 0.600000 0.000000 0.300000
-0.645924 -0.013788 -0.088857 0.500000 0.000000 0.500000
0.398576 0.013653 0.415379 0.000000 0.500000 0.500000
-0.169631 -0.013788 0.041304 0.500000 0.000000 0.500000
-0.803753 0.001378 -0.112994 0.500000 0.000000 0.500000
-0.730865 0.014354 0.212296 0.300000 0.600000 0.000000
0.370068 0.005339 -0.445920 0.600000 0.000000 0.300000
-0.330822 0.014687 0.107025 0.300000 0.600000 0.000000
-0.090407 -0.025924 0.070702 0.000000 0.500000 0.500000
-0.431692 -0.000573 0.105073 0.300000 0.600000 0.000000
0.219551 -0.006252 0.215986 0.000000 0.500000 0.500000
0.283113 -0.012979 -0.461357 0.600000 0.000000 0.300000
-0.784079 -0.013788 -0.141046 0.500000 0.000000 0.500000
-0.272583 0.014624 0.010874 0.300000 0.600000 0.000000
-0.449204 0.013965 0.062883 0.300000 0.600000 0.000000
-0.731053 -0.013788 -0.125408 0.500000 0.000000 0.500000
-0.071562 -0.025924 0.070626 0.000000 0.500000 0.500000
0.556120 -0.012979 -0.356639 0.600000 0.000000 0.300000
0.567872 0.003339 0.379786 0.000000 0.500000 0.500000
0.349459 -0.012979 -0.456696 0.600000 0.000000 0.300000
0.266189 -0.025924 0.161819 0.000000 0.500000 0.500000
-0.527439 0.001294 -0.034600 0.500000 0.000000 0.500000
0.177335 0.026597 -0.248398 0.600000 0.000000 0.300000
0.112915 0.013653 0.214585 0.000000 0.500000 0.500000
0.396470 0.020892 -0.224901 0.600000 0.000000 0.300000
-0.311648 -0.009057 0.042638 0.500000 0.000000 0.500000
-0.789925 -0.000573 0.211756 0.300000 0.600000 0.000000
-0.517268 0.007307 0.068887 0.300000 0.600000 0.000000
0.048905 0.004924 -0.100127 0.600000 0.000000 0.300000
-0.765268 0.001016 -0.121325 0.500000 0.000000 0.500000
0.583597 -0.025924 0.296170 0.000000 0.500000 0.500000
0.076867 -0.025924 0.226357 0.000000 0.500000 0.500000
-0.360066 0.014448 0.051919 0.300000 0.600000 0.000000
-0.633610 0.001355 -0.143044 0.500000 0.000000 0.500000
-0.179076 0.014492 -0.031641 0.300000 0.600000 0.000000
-0.394615 -0.012031 0.013508 0.500000 0.000000 0.500000
-0.772965 -0.000558 0.185748 0.300000 0.600000 0.000000
0.503206 0.001739 -0.476314 0.600000 0.000000 0.300000
-0.810057 0.014239 0.222192 0.300000 0.600000 0.000000
0.294096 -0.025924 0.170169 0.000000 0.500000 0.500000
0.180078 0.026597 -0.187440 0.600000 0.000000 0.300000
0.100346 -0.022820 0.261014 0.000000 0.500000 0.500000
0.418264 0.013653 0.201323 0.000000 0.500000 0.500000
0.178100 0.013653 0.288382 0.000000 0.500000 0.500000
-0.566710 0.001227 -0.122494 0.500000 0.000000 0.500000
-0.133072 0.001299 0.058409 0.500000 0.000000 0.500000
0.165339 0.014087 -0.390605 0.600000 0.000000 0.300000
0.220110 -0.025924 0.394662 0.000000 0.500000 0.500000
-0.880248 0.001393 -0.140638 0.500000 0.000000 0.500000
0.368784 0.013653 0.222783 0.000000 0.500000 0.500000
0.530123 -0.007550 -0.273001 0.600000 0.000000 0.300000
-0.024072 -0.025924 0.144489 0.000000 0.500000 0.500000
0.556987 -0.001114 -0.285090 0.600000 0.000000 0.300000
-0.172312 -0.013788 0.086892 0.500000 0.000000 0.500000
0.314759 -0.009098 0.436863 0.000000 0.500000 0.500000
-0.627792 0.014129 0.170708 0.300000 0.600000 0.000000
0.375604 0.001616 -0.485220 0.600000 0.000000 0.300000
0.420070 0.013653 0.179354 0.000000 0.500000 0.500000
-0.036277 0.013779 -0.153182 0.300000 0.600000 0.000000
0.201101 -0.017153 0.393480 0.000000 0.500000 0.500000
-0.509719 -0.000573 0.132797 0.300000 0.600000 0.000000
0.404702 0.013467 0.185077 0.000000 0.500000 0.500000
-0.239939 -0.000573 0.009717 0.300000 0.600000 0.000000
-0.925309 0.012128 0.280264 0.300000 0.600000 0.000000
-0.563797 -0.013788 -0.080232 0.500000 0.000000 0.500000
-0.103930 0.009076 -0.019076 0.300000 0.600000 0.000000
0.123290 -0.012979 -0.226207 0.600000 0.000000 0.300000
0.175668 0.013653 0.251306 0.000000 0.500000 0.500000
-0.145773 -0.016264 0.126960 0.000000 0.500000 0.500000
