ply
format ascii 1.0
element vertex 1261
property float x
property float y
property float z
property uchar red
property uchar green
property uchar blue
end_header
0.085796 0.013653 0.210783 0 127 127
-0.858615 0.003036 0.229722 76 153 0
0.517372 0.026597 -0.431885 153 0 76
-0.868524 0.008503 0.267769 76 153 0
-0.094670 0.003428 0.148258 0 127 127
-0.492858 0.013653 0.118615 76 153 0
0.579776 0.006194 -0.310947 153 0 76
0.375125 0.013653 0.192974 0 127 127
0.120305 0.026597 -0.164079 153 0 76
-0.104769 -0.025924 0.070075 0 127 127
-0.866779 0.013653 0.252038 76 153 0
0.190951 -0.012979 -0.152389 153 0 76
0.375684 0.026597 -0.268262 153 0 76
-0.067621 -0.012979 -0.066608 153 0 76
0.370344 -0.025924 0.412493 0 127 127
-0.716469 -0.001946 -0.161538 127 0 127
-0.569552 -0.001797 -0.033857 127 0 127
0.159758 -0.025924 0.260803 0 127 127
0.232291 0.025558 -0.450351 153 0 76
-0.475527 0.013653 0.081029 76 153 0
-0.143797 -0.025924 0.119233 0 127 127
0.192562 0.006224 0.239973 0 127 127
0.183123 -0.025924 0.232911 0 127 127
-0.667241 0.003189 0.133752 76 153 0
-0.581337 0.000461 0.114687 76 153 0
-0.735659 0.000461 0.176723 76 153 0
-0.884544 -0.004712 -0.139476 127 0 127
0.253733 -0.012405 0.387735 0 127 127
0.100920 0.017266 -0.277188 153 0 76
0.474128 -0.003096 0.387412 0 127 127
-0.084192 0.006853 -0.067835 153 0 76
-0.401509 0.013653 0.130327 76 153 0
-0.549201 -0.012732 -0.082035 127 0 127
-0.384927 0.000461 0.032245 76 153 0
-0.713225 0.013653 0.215732 76 153 0
0.177591 0.013653 0.170556 0 127 127
-0.931441 0.000775 0.250792 76 153 0
0.377806 0.007522 -0.218196 153 0 76
0.536837 0.004074 -0.346315 153 0 76
0.202105 0.004584 -0.155123 153 0 76
-0.823942 -0.012732 -0.142508 127 0 127
0.501708 -0.012979 -0.304884 153 0 76
-0.672196 0.000461 -0.063626 127 0 127
-0.537106 0.000461 0.173911 76 153 0
-0.126820 0.013653 0.127642 0 127 127
0.092893 -0.007605 0.102982 0 127 127
-0.435469 -0.012732 -0.087795 127 0 127
-0.038146 -0.012979 -0.161891 153 0 76
0.312906 0.011772 -0.476168 153 0 76
0.359603 0.013653 0.229157 0 127 127
-0.070101 -0.025924 0.090773 0 127 127
-0.086703 0.013653 0.097278 0 127 127
-0.348094 0.013653 0.039787 76 153 0
-0.246740 0.000461 -0.066473 127 0 127
-0.805788 0.000461 0.208074 76 153 0
0.104159 -0.012979 -0.155717 153 0 76
0.223450 -0.007450 -0.162785 153 0 76
0.221389 0.002461 0.136805 0 127 127
0.316318 -0.012979 -0.253774 153 0 76
-0.406743 0.013653 0.051299 76 153 0
0.052126 0.003427 -0.101283 153 0 76
0.014643 -0.025924 0.153003 0 127 127
0.120045 -0.012979 -0.274606 153 0 76
0.014909 -0.025924 0.138542 0 127 127
0.488839 0.013653 0.223079 0 127 127
0.519486 -0.025924 0.256737 0 127 127
0.256631 -0.012979 -0.434018 153 0 76
-0.541693 0.000461 -0.056506 127 0 127
-0.239227 -0.012732 0.038471 127 127 0
0.132951 -0.012979 -0.219945 153 0 76
-0.087723 -0.025924 0.110492 0 127 127
-0.427058 -0.012732 -0.012560 127 0 127
0.512271 0.000367 -0.472256 153 0 76
-0.261644 0.000461 0.053841 127 0 127
-0.158497 0.000461 0.091682 127 0 127
0.304875 -0.012979 -0.211678 153 0 76
0.446624 0.022104 -0.301248 153 0 76
-0.392625 -0.012732 -0.047220 127 0 127
-0.380214 -0.012732 -0.016127 127 0 127
0.401818 -0.018611 0.400749 0 127 127
-0.755454 0.000461 0.214603 76 153 0
-0.752658 -0.012732 -0.161468 127 0 127
-0.321171 0.000461 -0.061795 127 0 127
-0.207576 0.000461 0.083900 127 0 127
-0.074263 -0.025924 0.122745 0 127 127
0.245409 -0.005550 0.382945 0 127 127
-0.485710 -0.012732 -0.059448 127 0 127
0.237755 0.009309 0.416779 0 127 127
0.449032 0.013653 0.417866 0 127 127
0.029940 -0.018495 0.201466 0 127 127
0.297218 0.013537 -0.472882 153 0 76
0.081044 0.007103 -0.252734 153 0 76
-0.609244 0.000461 0.191598 76 153 0
0.513736 -0.012979 -0.293592 153 0 76
0.279782 -0.012979 -0.190485 153 0 76
-0.322162 -0.007932 -0.091157 127 0 127
-0.318987 0.000461 0.060141 76 153 0
0.172250 0.018449 -0.399363 153 0 76
-0.032196 -0.021927 0.173478 0 127 127
0.411452 -0.007995 -0.217586 153 0 76
-0.116535 -0.012979 -0.104041 153 0 76
-0.575908 -0.012732 -0.100282 127 0 127
0.132076 0.013653 0.213848 0 127 127
-0.706864 -0.012732 -0.122833 127 0 127
0.380426 0.006373 0.441701 0 127 127
-0.140208 0.000461 -0.056779 76 153 0
-0.161901 -0.012732 -0.009235 127 0 127
-0.173294 0.000461 -0.072748 76 153 0
-0.521096 -0.012732 -0.100323 127 0 127
0.133857 -0.005292 -0.130623 153 0 76
-0.009163 -0.008825 0.101975 127 0 127
0.150515 -0.025924 0.208792 0 127 127
-0.303028 -0.012732 0.014049 127 0 127
-0.247814 0.000461 -0.006990 76 153 0
0.560852 0.026597 -0.430847 153 0 76
-0.150505 0.000461 0.062950 127 0 127
0.073649 0.013653 0.223101 0 127 127
0.193384 0.010867 0.386914 0 127 127
-0.339557 0.013653 0.077567 76 153 0
0.144064 -0.005018 0.328670 0 127 127
-0.410484 -0.012732 -0.013545 127 0 127
-0.340903 -0.012732 -0.069778 127 0 127
0.105957 -0.012979 -0.233822 153 0 76
-0.811583 -0.002078 -0.173993 127 0 127
-0.016648 -0.011302 -0.076595 153 0 76
-0.191856 -0.012732 0.016533 127 0 127
-0.283994 -0.012732 -0.072822 127 0 127
0.480156 0.017064 -0.483559 153 0 76
0.433783 0.018288 -0.296865 153 0 76
0.206376 0.015120 -0.156656 153 0 76
0.111099 -0.001183 -0.122453 153 0 76
-0.044521 0.013653 -0.106912 76 153 0
-0.103544 0.000461 -0.120633 76 153 0
0.460293 0.020188 -0.438946 153 0 76
-0.033124 0.000461 0.125914 127 0 127
0.545143 -0.018639 0.306286 0 127 127
-0.282666 -0.012732 -0.082110 127 0 127
-0.889134 0.000461 0.251064 76 153 0
-0.104791 0.002269 -0.035340 76 153 0
-0.236423 -0.012732 -0.064670 127 0 127
0.255657 -0.012979 -0.233927 153 0 76
0.254559 0.013653 0.398369 0 127 127
-0.534808 -0.012732 -0.092996 127 0 127
-0.338874 0.002444 -0.008234 76 153 0
0.222918 -0.025924 0.397897 0 127 127
0.576578 0.013653 0.278234 0 127 127
0.164885 0.026597 -0.337490 153 0 76
-0.181685 0.013653 -0.070761 76 153 0
-0.484157 0.000461 0.144071 76 153 0
0.180651 0.026549 -0.409065 153 0 76
-0.480523 0.010203 0.056618 76 153 0
-0.329906 0.013653 0.063328 76 153 0
0.484982 0.015856 -0.314976 153 0 76
0.197105 -0.012979 -0.229802 153 0 76
-0.141221 -0.012732 -0.029995 127 0 127
0.157983 0.013653 0.262122 0 127 127
-0.342371 0.000461 0.019191 76 153 0
-0.094537 0.013653 -0.088643 76 153 0
-0.079291 -0.012979 -0.142388 153 0 76
-0.088704 -0.012732 0.113864 127 0 127
0.138978 0.026597 -0.134773 153 0 76
-0.566379 0.000461 -0.079416 127 0 127
-0.112270 0.013653 -0.061518 76 153 0
-0.576776 0.000461 -0.091849 127 0 127
-0.116164 0.000461 -0.043206 76 153 0
0.067516 0.026597 -0.232938 153 0 76
-0.161013 0.013653 0.010927 76 153 0
-0.850287 0.000461 0.240669 76 153 0
0.416989 0.005867 0.441348 0 127 127
0.207512 -0.007481 -0.254129 153 0 76
0.125562 -0.000153 -0.318386 153 0 76
0.417079 -0.025924 0.236820 0 127 127
0.424656 0.010691 0.397393 0 127 127
-0.190339 0.013653 -0.017960 76 153 0
-0.861386 0.000461 -0.158508 127 0 127
0.409836 0.007953 -0.229711 153 0 76
0.577918 0.013653 0.265121 0 127 127
0.288212 0.013653 0.193242 0 127 127
-0.833357 -0.012732 -0.142526 127 0 127
0.126899 0.015863 -0.128125 153 0 76
-0.910477 0.000461 -0.171990 127 0 127
-0.017624 -0.002613 -0.183093 153 0 76
-0.379156 0.013653 0.105376 76 153 0
0.487437 0.012557 0.384083 0 127 127
-0.214774 0.000461 -0.041739 76 153 0
0.333807 -0.025924 0.181522 0 127 127
-0.105206 0.026597 -0.106051 153 0 76
0.375677 -0.012979 -0.273596 153 0 76
-0.132581 0.013653 -0.085448 76 153 0
0.445811 0.017095 -0.440882 153 0 76
0.329002 0.004120 -0.479111 153 0 76
0.079726 0.026597 -0.159266 153 0 76
-0.016888 0.013653 -0.121440 76 153 0
0.127783 -0.025924 0.131119 0 127 127
-0.656036 0.000461 0.135219 76 153 0
0.087890 -0.012979 -0.124674 153 0 76
0.319395 0.014217 -0.262511 153 0 76
0.205874 0.013653 0.363293 0 127 127
-0.716837 -0.012732 -0.111342 127 0 127
0.090507 -0.025924 0.155211 0 127 127
0.206270 0.013653 0.139129 0 127 127
-0.089862 0.000461 0.073408 127 0 127
0.381462 0.026597 -0.478802 153 0 76
0.120654 -0.012979 -0.169672 153 0 76
-0.593749 -0.012732 -0.123276 127 0 127
0.260043 -0.012979 -0.188171 153 0 76
-0.327863 0.012853 0.116397 76 153 0
-0.357945 0.000461 -0.011933 127 0 127
0.270257 0.013653 0.201690 0 127 127
0.172888 -0.012979 -0.149740 153 0 76
-0.655018 -0.012732 -0.135878 127 0 127
-0.133913 0.000461 -0.089141 76 153 0
0.160630 0.013653 0.208840 0 127 127
-0.191060 0.000641 -0.088657 76 153 0
0.011660 0.026597 -0.104538 153 0 76
0.425367 0.017896 -0.487796 153 0 76
0.405758 -0.013159 0.441704 0 127 127
-0.033644 -0.008645 0.172894 0 127 127
-0.327061 0.013653 0.054629 76 153 0
0.434376 -0.012979 -0.268817 153 0 76
0.081285 0.008848 0.099926 0 127 127
0.590642 -0.020469 0.273779 0 127 127
-0.412428 -0.012343 -0.109914 127 0 127
-0.522783 0.000461 -0.128659 127 0 127
0.402545 0.013653 0.214933 0 127 127
-0.088870 -0.025924 0.063296 0 127 127
0.022251 0.013653 0.182406 0 127 127
0.544560 0.000731 0.303509 0 127 127
-0.769180 -0.008438 -0.168679 127 0 127
0.322946 -0.012095 -0.198502 153 0 76
0.208379 -0.012209 -0.157375 153 0 76
0.422462 -0.012979 -0.242864 153 0 76
-0.044396 -0.012979 -0.144506 153 0 76
-0.191969 0.006344 0.068656 76 153 0
0.382947 0.013653 0.186196 0 127 127
-0.332228 0.000461 -0.068087 127 0 127
0.538975 -0.006511 -0.456112 153 0 76
-0.711231 0.013653 0.180116 76 153 0
-0.520175 0.000461 0.146499 76 153 0
-0.016857 -0.012979 -0.108666 153 0 76
0.220822 0.026597 -0.188541 153 0 76
0.318854 0.019354 -0.477314 153 0 76
0.195182 -0.025924 0.350585 0 127 127
0.154781 -0.012979 -0.232870 153 0 76
0.133143 -0.025924 0.287276 0 127 127
0.302718 0.013653 0.413192 0 127 127
0.121829 -0.012979 -0.230862 153 0 76
0.568783 0.002707 -0.296151 153 0 76
0.463569 -0.025924 0.428562 0 127 127
0.574556 0.012371 -0.303064 153 0 76
-0.018651 -0.002998 0.178946 0 127 127
-0.532928 -0.012732 -0.126016 127 0 127
0.340369 -0.020108 0.168123 0 127 127
-0.316479 0.013653 0.015029 76 153 0
-0.284108 0.005860 0.101393 76 153 0
0.474884 0.011928 0.203611 0 127 127
-0.250789 -0.012732 -0.005593 127 0 127
-0.029719 -0.012732 0.110792 127 0 127
0.553863 -0.025924 0.392936 0 127 127
-0.055196 0.013653 -0.119407 76 153 0
-0.676840 -0.012732 -0.093692 127 0 127
-0.290167 -0.000662 0.057592 127 0 127
-0.483302 0.000461 -0.078029 127 0 127
0.567859 -0.025924 0.343595 0 127 127
0.552844 -0.012979 -0.372931 153 0 76
0.032760 0.026597 -0.114522 153 0 76
0.423983 -0.025924 0.205518 0 127 127
0.446526 -0.025924 0.425280 0 127 127
-0.224367 -0.008591 0.080445 127 0 127
-0.726446 0.000461 0.205754 76 153 0
-0.284827 0.013653 0.025025 76 153 0
0.269577 -0.006518 -0.179344 153 0 76
-0.115226 -0.012732 0.110502 127 0 127
0.279955 0.026597 -0.202858 153 0 76
0.064168 -0.012979 -0.142242 153 0 76
-0.695718 -0.005627 -0.080253 127 0 127
0.182040 -0.025924 0.201635 0 127 127
0.211757 0.026597 -0.399474 153 0 76
-0.484658 0.000461 -0.050066 127 0 127
0.331661 0.007785 -0.201631 153 0 76
0.479639 0.026597 -0.255497 153 0 76
0.557088 -0.001706 0.391941 0 127 127
0.095007 -0.003675 -0.116676 153 0 76
-0.562734 0.013653 0.108962 76 153 0
0.500739 0.003045 0.267318 0 127 127
-0.305573 0.000461 0.098617 76 153 0
0.545326 0.026597 -0.333836 153 0 76
-0.137504 -0.010374 0.109377 127 0 127
0.003357 -0.012979 -0.167068 153 0 76
-0.339517 -0.009257 -0.094887 127 0 127
-0.214675 0.000461 -0.022446 127 0 127
-0.345978 0.000461 -0.023446 127 0 127
0.182611 -0.012979 -0.411078 153 0 76
0.196475 0.026597 -0.385098 153 0 76
-0.764250 0.000461 0.224750 76 153 0
-0.517667 0.000461 0.137688 76 153 0
0.346853 0.006743 -0.445806 153 0 76
0.089604 -0.025924 0.125974 0 127 127
-0.383716 -0.012732 0.010961 127 0 127
-0.539819 0.001692 0.182883 76 153 0
-0.501301 -0.007131 -0.020145 127 0 127
-0.090075 0.026597 -0.103115 153 0 76
0.377956 -0.008668 0.403429 0 127 127
-0.137464 0.013653 -0.013280 76 153 0
-0.222909 -0.016980 0.010411 127 127 0
-0.292870 -0.006780 -0.084818 127 0 127
-0.267853 0.000461 -0.056405 127 0 127
-0.264467 0.000461 0.082717 76 153 0
-0.053180 0.000461 -0.143119 76 153 0
0.550641 0.026597 -0.436932 153 0 76
-0.209059 0.000461 0.065249 76 153 0
0.395408 0.026597 -0.257470 153 0 76
0.127483 -0.025924 0.143620 0 127 127
-0.590334 0.000461 0.183298 76 153 0
-0.606927 0.013653 0.158826 76 153 0
0.512634 -0.016408 0.423514 0 127 127
-0.828269 -0.008356 -0.176036 127 0 127
-0.604510 0.000461 0.149392 76 153 0
-0.039182 -0.025924 0.084383 0 127 127
0.253857 -0.012979 -0.210525 153 0 76
0.391229 0.026597 -0.476478 153 0 76
-0.586442 -0.006328 -0.046246 127 0 127
0.038257 0.013653 0.143670 0 127 127
0.254644 0.013653 0.414523 0 127 127
0.265344 0.026597 -0.453018 153 0 76
0.366511 -0.012979 -0.473112 153 0 76
-0.139233 0.000461 0.007090 76 153 0
-0.004165 0.009322 -0.189946 153 0 76
0.156406 0.013653 0.340082 0 127 127
-0.601547 0.013653 0.170675 76 153 0
0.139266 0.026597 -0.200162 153 0 76
-0.211238 0.013653 -0.038715 76 153 0
0.192689 0.013653 0.141327 0 127 127
0.518621 -0.012979 -0.455216 153 0 76
-0.367409 0.000461 0.099700 76 153 0
-0.376476 0.000461 0.044922 76 153 0
-0.158132 0.000461 -0.058169 76 153 0
0.216526 0.026597 -0.430073 153 0 76
-0.013937 0.026597 -0.101314 153 0 76
-0.219969 -0.012732 0.046708 127 0 127
0.249713 -0.015707 0.210904 0 127 127
-0.806889 -0.012732 -0.150068 127 0 127
-0.130999 0.013653 0.033251 76 153 0
-0.480094 0.000461 -0.114775 127 0 127
-0.591350 0.000461 0.160678 76 153 0
0.363490 -0.006327 0.441139 0 127 127
0.081335 0.006497 0.240623 0 127 127
0.255155 0.012405 -0.242914 153 0 76
0.184745 -0.012979 -0.235639 153 0 76
-0.857146 0.000461 0.252746 76 153 0
0.130630 -0.012979 -0.166026 153 0 76
-0.608569 -0.012732 -0.109523 127 0 127
0.445270 0.004499 0.189803 0 127 127
-0.682824 0.013653 0.179801 76 153 0
-0.328143 0.000461 0.038056 127 0 127
0.256408 0.006175 0.146023 0 127 127
0.134999 -0.016977 0.313013 0 127 127
0.441592 -0.010010 0.394413 0 127 127
0.111648 0.026597 -0.255421 153 0 76
0.193781 0.026597 -0.264393 153 0 76
0.141430 0.018788 -0.352779 153 0 76
0.147522 0.026597 -0.149267 153 0 76
0.459099 0.012749 0.438275 0 127 127
-0.853181 0.000461 -0.167285 127 0 127
0.331251 0.013653 0.198375 0 127 127
0.189922 0.016605 -0.278564 153 0 76
0.279916 -0.017133 0.431136 0 127 127
-0.055817 -0.012732 0.119128 127 0 127
0.118480 0.026586 -0.304756 153 0 76
-0.112204 0.000461 -0.108264 76 153 0
-0.220429 0.016897 0.005880 127 127 0
-0.210455 0.000461 -0.002735 76 153 0
-0.079365 0.013653 0.151917 0 127 127
0.320658 -0.025924 0.212838 0 127 127
-0.206290 0.013653 0.028029 76 153 0
-0.094970 0.013653 -0.130789 76 153 0
0.377979 -0.012979 -0.452839 153 0 76
0.184245 0.014569 -0.294085 153 0 76
0.258600 -0.012979 -0.453259 153 0 76
-0.535424 0.000461 -0.096798 127 0 127
-0.025483 0.013653 -0.147393 76 153 0
-0.225810 -0.012732 0.063619 127 0 127
-0.554702 0.013653 0.124035 76 153 0
0.576248 -0.011338 -0.416294 153 0 76
-0.400239 0.000461 0.110308 76 153 0
0.362899 0.026597 -0.219666 153 0 76
-0.201582 0.013653 -0.067455 76 153 0
0.443553 -0.025924 0.403023 0 127 127
-0.063184 0.012494 -0.088475 76 153 0
-0.171377 0.010383 0.060998 76 153 0
0.582126 0.007596 -0.406652 153 0 76
-0.553247 0.000461 0.154060 76 153 0
-0.993998 -0.012732 -0.180021 127 0 127
-0.190071 -0.000611 0.091456 127 0 127
-0.406939 0.000461 -0.092908 127 0 127
0.362829 -0.025924 0.427077 0 127 127
0.053385 0.026597 -0.106657 153 0 76
-0.062979 -0.005064 0.132260 127 0 127
-0.039194 -0.012979 -0.114933 153 0 76
-0.081633 -0.012092 0.153521 0 127 127
0.148530 0.013653 0.194602 0 127 127
0.133074 -0.025924 0.255872 0 127 127
-0.015103 0.000461 0.109063 127 0 127
0.033638 -0.012979 -0.184541 153 0 76
-0.995595 0.000461 -0.183353 127 0 127
0.184812 0.026597 -0.360734 153 0 76
0.387302 -0.018599 0.441783 0 127 127
0.163711 -0.006274 0.356062 0 127 127
0.578766 0.026597 -0.353750 153 0 76
-0.092912 -0.012732 0.084383 127 0 127
0.479905 -0.006486 0.434907 0 127 127
-0.546102 -0.012732 -0.095263 127 0 127
0.356836 -0.012495 -0.445942 153 0 76
0.354802 0.009284 0.171923 0 127 127
-0.900322 0.000461 -0.161883 127 0 127
0.048537 -0.012979 -0.189653 153 0 76
-0.778499 0.002008 0.246601 76 153 0
-0.574093 0.013653 0.133924 76 153 0
0.483822 -0.007152 0.262628 0 127 127
0.299437 -0.011071 -0.473362 153 0 76
0.593012 0.006176 -0.374449 153 0 76
0.532374 0.026597 -0.323914 153 0 76
0.185481 0.000412 -0.149155 153 0 76
-0.836634 -0.003537 -0.122286 127 0 127
-0.647977 0.000461 -0.077454 127 0 127
-0.919044 0.000461 -0.158477 127 0 127
0.589705 0.014097 -0.389375 153 0 76
-0.832354 0.001205 0.206130 76 153 0
0.256160 0.024981 -0.242975 153 0 76
-0.258089 -0.012732 0.034722 127 0 127
-0.195920 -0.012732 0.069743 127 0 127
-0.687556 0.000461 -0.146748 127 0 127
0.497598 -0.025924 0.218902 0 127 127
-0.461740 -0.012732 -0.032358 127 0 127
0.498639 -0.025924 0.406998 0 127 127
-0.798697 0.000461 0.240817 76 153 0
0.093210 -0.025924 0.229970 0 127 127
-0.511689 -0.012732 -0.076706 127 0 127
0.055483 -0.012979 -0.127627 153 0 76
-0.422486 0.000461 0.114433 76 153 0
-0.293706 -0.012732 -0.059099 127 0 127
-0.313268 -0.012732 0.004173 127 0 127
-0.076970 0.000461 -0.112581 76 153 0
-0.525002 0.000461 -0.069740 127 0 127
0.275865 0.001174 -0.181601 153 0 76
0.013399 -0.008341 -0.087381 153 0 76
-0.272904 -0.012732 0.044667 127 0 127
0.440085 0.013653 0.415971 0 127 127
-0.081315 -0.012732 0.082163 127 0 127
0.459013 0.010814 -0.247410 153 0 76
-0.268062 0.013653 0.092563 76 153 0
-0.794452 0.010042 0.200346 76 153 0
0.343521 0.009425 0.405546 0 127 127
-0.492255 -0.012732 -0.109587 127 0 127
-0.041453 0.009774 -0.157152 76 153 0
0.107025 -0.012979 -0.210972 153 0 76
-0.023667 0.013653 0.112814 0 127 127
0.183487 0.013653 0.375236 0 127 127
0.112679 0.009064 0.276887 0 127 127
0.289070 0.026597 -0.450615 153 0 76
0.005446 0.013653 0.122831 0 127 127
0.299162 -0.025924 0.213193 0 127 127
0.542666 -0.010221 -0.374719 153 0 76
0.220425 -0.004930 0.363666 0 127 127
-0.218418 0.005559 0.078203 76 153 0
0.330125 -0.012979 -0.445967 153 0 76
-0.592816 0.000461 -0.129701 127 0 127
-0.100656 -0.012979 -0.112564 153 0 76
-0.515575 -0.012732 -0.058951 127 0 127
0.313928 0.008218 -0.442840 153 0 76
-0.723623 -0.012732 -0.127611 127 0 127
-0.805509 -0.012732 -0.163470 127 0 127
0.571029 0.013653 0.371620 0 127 127
0.240316 -0.025924 0.393962 0 127 127
-0.133104 -0.000111 0.109746 0 127 127
0.494851 0.005176 -0.260307 153 0 76
0.418595 -0.012979 -0.483172 153 0 76
0.451263 -0.005558 -0.440177 153 0 76
-0.110257 0.003168 0.073625 127 0 127
-0.069671 -0.025924 0.066314 0 127 127
-0.152318 0.013653 -0.005721 76 153 0
-0.584315 0.000461 0.152675 76 153 0
-0.731318 0.013653 0.172100 76 153 0
-0.090697 -0.025924 0.128730 0 127 127
-0.903958 0.013653 0.265230 76 153 0
0.270168 -0.025924 0.182288 0 127 127
-0.806036 -0.002334 -0.110608 127 0 127
-0.477291 0.000461 -0.021688 127 0 127
-0.110323 -0.018283 0.141939 0 127 127
0.362151 -0.018262 0.173857 0 127 127
-0.070442 0.026597 -0.152424 153 0 76
0.176665 0.013653 0.192031 0 127 127
-0.375456 -0.012732 -0.044840 127 0 127
-0.144724 0.005194 0.051086 76 153 0
0.396278 -0.004066 0.401463 0 127 127
0.555314 -0.025924 0.258012 0 127 127
0.040901 -0.007508 0.208321 0 127 127
0.282017 -0.012979 -0.209182 153 0 76
-0.077827 0.026597 -0.146808 153 0 76
-0.392742 0.013653 0.029100 76 153 0
-0.200247 -0.006037 -0.063291 127 0 127
0.175657 -0.025924 0.175248 0 127 127
0.076669 0.013653 0.109829 0 127 127
0.022428 -0.004942 0.197105 0 127 127
-0.402733 0.000461 -0.002127 127 0 127
-0.439144 -0.012732 -0.107791 127 0 127
0.145898 -0.025924 0.299671 0 127 127
-0.127063 0.013653 -0.103366 76 153 0
0.181560 -0.013882 0.287863 0 127 127
-0.693026 -0.012732 -0.090814 127 0 127
0.271722 -0.003435 0.429072 0 127 127
0.061274 -0.005961 0.094659 0 127 127
-0.059917 0.012802 0.062758 0 127 127
-0.358806 0.013653 0.073030 76 153 0
0.478611 -0.012979 -0.454031 153 0 76
-0.933307 0.006238 0.260481 76 153 0
0.133612 -0.012979 -0.272167 153 0 76
-0.206747 0.000461 0.041029 127 0 127
0.037733 0.013653 0.115093 0 127 127
0.440971 -0.000905 0.394526 0 127 127
-0.372424 0.000461 -0.079262 127 0 127
0.392649 -0.009340 -0.486578 153 0 76
-0.818406 0.013653 0.247462 76 153 0
0.209444 -0.020155 0.351547 0 127 127
0.096110 0.013653 0.194068 0 127 127
-0.023047 0.026597 -0.121008 153 0 76
-0.511262 0.000461 -0.114217 127 0 127
0.123085 0.026597 -0.273508 153 0 76
0.470138 0.026597 -0.289963 153 0 76
-0.035600 0.013653 0.152797 0 127 127
0.417463 -0.017553 0.441332 0 127 127
-0.311393 0.000461 0.033418 76 153 0
0.181465 0.002671 0.283716 0 127 127
-0.947923 0.000461 -0.157784 127 0 127
-0.396617 0.000461 -0.034482 127 0 127
-0.665751 0.013653 0.185353 76 153 0
-0.327450 -0.012732 -0.063287 127 0 127
-0.404455 -0.012732 -0.060658 127 0 127
0.022459 -0.012979 -0.173352 153 0 76
-0.072477 0.026597 -0.095042 153 0 76
0.132216 0.026597 -0.224813 153 0 76
0.004489 0.003789 -0.129399 76 153 0
0.545325 -0.010313 0.222214 0 127 127
-0.871193 0.000461 0.262115 76 153 0
-0.563513 0.000461 -0.109046 127 0 127
-0.799814 0.013653 0.242086 76 153 0
-0.359017 -0.012732 -0.051107 127 0 127
0.518119 0.014362 -0.421959 153 0 76
0.109877 -0.012979 -0.289408 153 0 76
0.183149 -0.017107 0.377301 0 127 127
-0.514813 0.000461 -0.065623 127 0 127
-0.108394 0.000461 0.110513 127 0 127
0.117265 -0.011648 0.283361 0 127 127
-0.138621 -0.012732 -0.012507 127 0 127
-0.084163 -0.012979 -0.072028 153 0 76
0.171555 0.013653 0.342976 0 127 127
0.542484 0.008373 -0.377907 153 0 76
-0.521599 0.013653 0.115277 76 153 0
-0.117190 -0.023634 0.082723 0 127 127
0.288701 0.026597 -0.467840 153 0 76
0.486714 -0.000840 0.206735 0 127 127
-0.516531 0.013653 0.081606 76 153 0
0.194382 0.017191 -0.423159 153 0 76
0.231355 -0.025924 0.203897 0 127 127
0.505704 0.026597 -0.292105 153 0 76
-0.180956 0.013653 -0.046483 76 153 0
0.404606 -0.012979 -0.253509 153 0 76
0.453200 -0.012979 -0.262647 153 0 76
0.340938 -0.020842 0.405552 0 127 127
0.577690 0.026597 -0.402038 153 0 76
-0.478730 -0.005824 -0.010888 127 0 127
0.470934 0.013653 0.390882 0 127 127
-0.610162 0.000461 -0.100285 127 0 127
0.176073 -0.012979 -0.290104 153 0 76
-0.207748 -0.012732 -0.027604 127 0 127
0.464952 -0.012455 -0.249547 153 0 76
0.161099 -0.016690 0.352736 0 127 127
0.225734 -0.016597 0.137949 0 127 127
0.542028 0.013653 0.358761 0 127 127
0.139905 0.013653 0.226930 0 127 127
-0.205237 0.009930 0.073492 76 153 0
-0.509623 -0.001779 -0.128379 127 0 127
-0.708249 0.000461 0.219402 76 153 0
-0.278961 0.000461 0.087268 76 153 0
0.187212 -0.012979 -0.387586 153 0 76
-0.061270 0.013653 -0.134543 76 153 0
0.276767 -0.012979 -0.457387 153 0 76
0.152786 -0.025924 0.222813 0 127 127
0.477665 0.026597 -0.461022 153 0 76
-0.386477 0.000461 -0.048855 127 0 127
-0.089828 -0.012979 -0.086279 153 0 76
-0.426249 -0.012732 -0.001212 127 0 127
0.171516 0.026597 -0.294501 153 0 76
-0.514413 -0.012732 -0.089189 127 0 127
0.386126 -0.012979 -0.273310 153 0 76
-0.557979 -0.004797 -0.136838 127 0 127
0.469566 0.013653 0.427189 0 127 127
-0.037544 -0.025924 0.120024 0 127 127
-0.434761 0.000547 0.035666 76 153 0
-0.367404 0.005745 0.000591 76 153 0
-0.811018 0.000461 0.226261 76 153 0
-0.104817 0.006702 0.017866 76 153 0
0.540679 0.013653 0.371547 0 127 127
-0.463520 0.000461 -0.097554 127 0 127
-0.028482 0.000461 -0.160607 76 153 0
-0.474927 0.000461 -0.060121 127 0 127
-0.480368 0.009232 0.165146 76 153 0
0.182777 0.013653 0.321485 0 127 127
0.319439 0.013653 0.183524 0 127 127
-0.492147 -0.004796 -0.125192 127 0 127
-0.660418 0.007627 0.137774 76 153 0
-0.200384 -0.012732 -0.035776 127 0 127
0.197725 0.013274 0.232054 0 127 127
0.159184 0.004648 -0.139715 153 0 76
0.536317 -0.012979 -0.423906 153 0 76
0.246975 -0.006615 0.420741 0 127 127
-0.077827 -0.012979 -0.124499 153 0 76
0.352516 0.014411 -0.482652 153 0 76
0.457484 -0.012979 -0.282350 153 0 76
-0.204621 0.013653 -0.007644 76 153 0
-0.507523 0.000461 0.114121 76 153 0
-0.478778 0.000461 0.129808 76 153 0
-0.388094 -0.012732 -0.097349 127 0 127
-0.282477 0.013653 -0.016392 76 153 0
0.495900 0.026597 -0.310965 153 0 76
0.498859 0.005589 -0.320150 153 0 76
0.227158 -0.017657 0.213780 0 127 127
-0.014816 -0.012732 0.113863 127 0 127
-0.123174 -0.009064 0.020367 127 0 127
0.510628 0.010043 0.213050 0 127 127
-0.054259 0.000461 0.125924 127 0 127
-0.313601 0.013653 0.106077 76 153 0
-0.280664 -0.012732 -0.014100 127 0 127
0.272190 -0.025924 0.165600 0 127 127
0.259960 -0.022846 0.390616 0 127 127
0.171759 0.026597 -0.223108 153 0 76
-0.047221 0.000461 0.135091 127 0 127
-0.792436 -0.012732 -0.136014 127 0 127
0.539689 -0.012979 -0.303287 153 0 76
0.333157 -0.007312 0.166225 0 127 127
-0.739663 0.000461 -0.106357 127 0 127
-0.757839 -0.012732 -0.125426 127 0 127
0.160486 0.013653 0.192808 0 127 127
0.562813 -0.012979 -0.338897 153 0 76
0.400138 -0.025924 0.185183 0 127 127
0.070494 0.026597 -0.207136 153 0 76
0.339282 0.026597 -0.250791 153 0 76
0.408328 -0.003699 -0.288441 153 0 76
0.133020 0.002789 0.113544 0 127 127
-0.294460 -0.012732 0.030607 127 0 127
0.412830 0.009828 -0.218109 153 0 76
0.136313 -0.002496 0.315403 0 127 127
-0.870505 0.000461 -0.155985 127 0 127
0.044487 0.013653 0.099389 0 127 127
-0.998166 -0.004708 -0.190964 127 0 127
-0.924558 0.002686 0.280010 76 153 0
0.122006 0.026597 -0.194087 153 0 76
-0.269010 0.006473 -0.043286 76 153 0
-0.787216 -0.009195 -0.171010 127 0 127
0.040680 0.013653 0.126389 0 127 127
-0.109849 0.000461 0.000263 76 153 0
-0.396842 0.000461 -0.015684 127 0 127
-0.752175 0.013653 0.208748 76 153 0
-0.861472 0.013653 0.239835 76 153 0
0.171261 0.013653 0.277854 0 127 127
0.158423 -0.012979 -0.142119 153 0 76
0.572780 -0.012979 -0.348695 153 0 76
0.422759 -0.003477 -0.443297 153 0 76
0.095288 -0.012979 -0.246087 153 0 76
0.133623 0.016993 -0.336352 153 0 76
-0.735970 0.005651 0.169182 76 153 0
-0.260079 0.000461 0.022989 127 0 127
-0.665241 0.000461 0.196192 76 153 0
0.515710 -0.012979 -0.444068 153 0 76
0.351454 -0.012979 -0.224879 153 0 76
0.105170 0.013653 0.137722 0 127 127
-0.102301 0.013653 0.086135 0 127 127
-0.275245 -0.012732 -0.042259 127 0 127
-0.309696 0.000321 -0.088478 127 0 127
-0.630644 0.000461 -0.096109 127 0 127
0.593392 -0.007687 0.334143 0 127 127
0.064513 -0.012979 -0.162227 153 0 76
0.304411 0.001982 0.402769 0 127 127
0.204757 -0.012979 -0.416362 153 0 76
-0.508349 0.013653 0.156624 76 153 0
-0.578183 0.013653 0.115629 76 153 0
-0.268584 0.013653 0.017325 76 153 0
-0.144767 0.013653 -0.049450 76 153 0
-0.429040 0.013653 0.148323 76 153 0
0.505565 -0.025924 0.248961 0 127 127
0.165748 -0.012979 -0.360736 153 0 76
-0.156717 0.013653 -0.102660 76 153 0
-0.555543 0.013653 0.185658 76 153 0
0.234193 0.018023 -0.412155 153 0 76
0.252570 -0.025924 0.156790 0 127 127
0.411254 -0.006234 0.399459 0 127 127
-0.458551 0.000461 0.063791 76 153 0
-0.374550 0.000461 0.012971 127 0 127
-0.593334 0.003903 0.101064 76 153 0
0.534623 0.013653 0.239709 0 127 127
0.104427 -0.025924 0.123186 0 127 127
-0.224133 0.000461 0.042788 127 0 127
0.461766 0.026597 -0.451296 153 0 76
-0.736602 -0.012732 -0.139287 127 0 127
-0.253467 -0.005102 0.070982 127 0 127
0.303947 0.026597 -0.214738 153 0 76
0.528687 0.004826 -0.412057 153 0 76
0.238773 -0.025924 0.408387 0 127 127
0.240972 -0.012979 -0.225362 153 0 76
0.268198 -0.025924 0.419559 0 127 127
0.430007 -0.025924 0.231211 0 127 127
0.447652 0.026597 -0.268986 153 0 76
0.232705 -0.003598 0.212551 0 127 127
-0.266415 -0.012732 0.017370 127 0 127
-0.665057 0.007732 0.217836 76 153 0
0.165369 0.026597 -0.241264 153 0 76
0.103274 -0.025924 0.201936 0 127 127
-0.133301 0.008534 0.103862 0 127 127
-0.003228 0.003291 0.185172 0 127 127
-0.352366 0.000461 -0.081677 127 0 127
0.307377 -0.016452 0.159439 0 127 127
0.270045 -0.012979 -0.222836 153 0 76
0.084850 -0.025924 0.216313 0 127 127
0.272313 -0.025924 0.402576 0 127 127
-0.413940 0.013653 0.067405 76 153 0
0.337502 0.026597 -0.472359 153 0 76
-0.635484 0.000461 0.143289 76 153 0
0.549030 -0.012979 -0.308131 153 0 76
0.236062 0.013653 0.193575 0 127 127
-0.403607 -0.012732 -0.091809 127 0 127
0.215972 -0.025924 0.371120 0 127 127
0.323367 -0.014776 0.437922 0 127 127
-0.559257 0.000461 0.111700 76 153 0
0.181400 -0.025924 0.326926 0 127 127
-0.111415 -0.012732 0.063056 127 0 127
-0.163273 0.000461 0.052763 76 153 0
-0.095782 0.019198 -0.080567 153 0 76
-0.640987 0.000461 -0.140864 127 0 127
-0.375770 -0.012732 -0.023589 127 0 127
0.056868 0.013653 0.115146 0 127 127
-0.412441 -0.012732 0.001757 127 0 127
0.142999 -0.012979 -0.226076 153 0 76
-0.496515 -0.012732 -0.092787 127 0 127
-0.060192 -0.025924 0.111816 0 127 127
0.321054 0.026597 -0.227584 153 0 76
0.463940 0.013653 0.408761 0 127 127
-0.258936 0.008616 -0.044833 76 153 0
0.156751 0.026597 -0.188103 153 0 76
0.297394 0.013653 0.180944 0 127 127
0.194127 0.007150 0.129629 0 127 127
-0.189537 0.013653 0.019821 76 153 0
-0.848148 0.013653 0.242483 76 153 0
0.437926 -0.025924 0.235099 0 127 127
0.355009 -0.012979 -0.251246 153 0 76
-0.237284 0.013653 -0.037979 76 153 0
0.126394 0.026597 -0.207211 153 0 76
-0.006790 -0.025924 0.159273 0 127 127
-0.176621 0.013653 -0.078530 76 153 0
-0.326441 0.000461 -0.049071 127 0 127
0.568715 -0.014013 0.239479 0 127 127
0.290168 0.000510 0.218939 0 127 127
-0.779625 -0.012732 -0.154591 127 0 127
0.501412 0.012749 0.428354 0 127 127
0.008284 -0.012979 -0.131343 153 0 76
0.101296 -0.025924 0.222902 0 127 127
0.213629 -0.005989 0.356607 0 127 127
-0.614094 -0.012732 -0.079199 127 0 127
-0.201533 0.000461 0.004781 127 0 127
-0.074240 0.013653 0.132636 0 127 127
-0.654346 -0.012732 -0.091700 127 0 127
0.181943 0.005793 -0.323960 153 0 76
-0.091159 0.000461 0.099029 127 0 127
-0.157102 0.013653 -0.013625 76 153 0
0.593807 0.020521 -0.361780 153 0 76
0.019283 0.026597 -0.178656 153 0 76
-0.433908 0.000461 -0.002974 127 0 127
0.253002 -0.025924 0.179390 0 127 127
0.123161 0.026597 -0.288518 153 0 76
0.195332 -0.009494 0.129946 0 127 127
-0.327978 0.013653 0.105001 76 153 0
-0.900213 0.000461 0.265593 76 153 0
-0.084293 0.026597 -0.090976 153 0 76
0.317822 0.026597 -0.200003 153 0 76
-0.310508 0.000461 0.109117 76 153 0
0.542972 0.013653 0.381941 0 127 127
-0.345892 0.013653 0.069802 76 153 0
-0.330143 -0.012732 -0.002039 127 0 127
0.390550 -0.025924 0.239186 0 127 127
0.261654 -0.025924 0.205664 0 127 127
-0.359910 0.000461 0.083617 76 153 0
-0.454381 -0.012732 -0.082209 127 0 127
-0.956823 -0.012732 -0.173676 127 0 127
0.270727 0.017071 -0.245244 153 0 76
-0.211493 -0.012732 0.076900 127 0 127
-0.883550 0.000461 0.267020 76 153 0
0.037958 0.013653 0.174373 0 127 127
0.224984 0.013653 0.387775 0 127 127
-0.292057 0.000461 -0.022545 76 153 0
-0.161586 0.013653 -0.045507 76 153 0
0.166246 -0.012979 -0.168232 153 0 76
0.141089 0.013653 0.246809 0 127 127
-0.550220 0.000461 -0.085551 127 0 127
-0.443058 0.000461 -0.103475 127 0 127
0.366470 0.007761 -0.445942 153 0 76
-0.069590 0.026597 -0.081275 153 0 76
0.489224 -0.012979 -0.291904 153 0 76
-0.161319 -0.012732 -0.031932 127 0 127
0.298917 -0.025924 0.166517 0 127 127
0.352663 -0.005378 -0.482670 153 0 76
-0.535184 -0.012732 -0.109726 127 0 127
0.458103 -0.012979 -0.294663 153 0 76
0.089546 0.013653 0.248321 0 127 127
0.106357 0.026597 -0.219654 153 0 76
0.178911 0.026597 -0.283931 153 0 76
-0.523755 0.013653 0.126868 76 153 0
-0.524468 0.000461 0.173012 76 153 0
0.301227 -0.004299 -0.440535 153 0 76
0.453671 -0.005031 -0.243436 153 0 76
0.587980 -0.025924 0.292067 0 127 127
-0.565231 0.013653 0.145773 76 153 0
-0.397485 -0.012732 -0.020018 127 0 127
-0.639322 0.013653 0.204742 76 153 0
-0.246207 0.013653 0.087541 76 153 0
0.386546 -0.025924 0.218122 0 127 127
0.170061 0.026597 -0.373289 153 0 76
-0.105135 0.026597 -0.094624 153 0 76
-0.047197 0.026597 -0.141361 153 0 76
0.582098 0.025042 -0.315142 153 0 76
0.507380 -0.025924 0.416965 0 127 127
-0.612970 0.000461 -0.137468 127 0 127
0.286638 0.013653 0.413921 0 127 127
-0.041363 -0.012979 -0.091926 153 0 76
-0.721613 0.000461 0.227825 76 153 0
-0.299220 0.000461 0.007543 76 153 0
0.479182 0.008171 -0.254668 153 0 76
0.141291 -0.025924 0.175316 0 127 127
0.546683 -0.009522 0.316491 0 127 127
0.114292 -0.012979 -0.202055 153 0 76
0.068237 0.013653 0.179687 0 127 127
-0.582511 0.000461 0.128583 76 153 0
-0.295321 0.013653 0.086624 76 153 0
-0.908866 0.000461 0.268231 76 153 0
-0.657726 -0.012732 -0.110097 127 0 127
0.517559 0.013653 0.235722 0 127 127
0.154210 0.006545 0.119122 0 127 127
-0.102350 0.013653 -0.077503 76 153 0
0.100701 0.013653 0.156438 0 127 127
0.061093 -0.012979 -0.223404 153 0 76
0.503243 0.026597 -0.439488 153 0 76
-0.010749 0.013653 0.097870 0 127 127
0.536600 -0.005991 0.219909 0 127 127
0.512454 -0.025924 0.230645 0 127 127
-0.753587 -0.000262 -0.090568 127 0 127
-0.122697 -0.012979 -0.123001 153 0 76
0.043724 -0.012979 -0.118813 153 0 76
0.069958 0.021369 -0.241263 153 0 76
0.217241 0.026597 -0.200029 153 0 76
-0.184717 0.000461 -0.031572 127 0 127
0.086966 0.026597 -0.242092 153 0 76
-0.089344 -0.008647 0.123796 127 0 127
0.235481 0.026597 -0.199354 153 0 76
-0.105327 0.013653 -0.115444 76 153 0
0.096045 -0.025924 0.138336 0 127 127
-0.530066 0.013653 0.171672 76 153 0
0.275950 -0.012979 -0.237121 153 0 76
0.147343 0.026597 -0.239087 153 0 76
-0.318378 0.000461 -0.034195 76 153 0
-0.219671 0.000461 0.007348 127 0 127
0.437008 0.007909 0.181902 0 127 127
0.576032 0.013653 0.354358 0 127 127
0.502828 0.013653 0.242632 0 127 127
0.105916 -0.012979 -0.181208 153 0 76
0.147236 -0.012979 -0.155923 153 0 76
0.192594 0.013653 0.340514 0 127 127
-0.272544 0.013653 0.033667 76 153 0
0.531337 -0.012979 -0.440906 153 0 76
-0.136917 -0.005775 -0.040126 127 0 127
-0.047363 0.016889 -0.167951 153 0 76
0.320353 -0.008485 -0.477603 153 0 76
-0.104737 -0.012732 0.097918 127 0 127
0.441028 0.013653 0.192992 0 127 127
0.238134 0.026597 -0.424524 153 0 76
-0.459201 0.013653 0.087620 76 153 0
-1.005248 0.000457 -0.170242 127 0 127
-0.029013 -0.025924 0.141545 0 127 127
0.540527 -0.012979 -0.409852 153 0 76
0.019545 0.026597 -0.157944 153 0 76
0.380679 0.013653 0.407639 0 127 127
0.259293 0.015832 -0.427429 153 0 76
-0.164366 0.000461 0.024000 127 0 127
0.530590 0.005342 0.413666 0 127 127
0.366548 0.019470 -0.214155 153 0 76
0.206178 0.026597 -0.213786 153 0 76
0.369751 0.013653 0.430968 0 127 127
-0.099807 0.000461 -0.055199 76 153 0
-0.072604 -0.012979 -0.101746 153 0 76
0.483656 -0.017972 0.385052 0 127 127
0.229196 -0.012979 -0.233628 153 0 76
-0.966103 0.000461 -0.174495 127 0 127
0.563371 0.002805 0.385357 0 127 127
0.230334 -0.025924 0.185227 0 127 127
-0.252722 -0.012732 -0.052455 127 0 127
0.140545 -0.017966 0.322843 0 127 127
-0.000476 -0.025924 0.116026 0 127 127
-0.464889 -0.012732 -0.071327 127 0 127
-0.019277 -0.025924 0.176816 0 127 127
-0.684417 0.013653 0.193228 76 153 0
0.558642 -0.025924 0.299525 0 127 127
0.222195 0.006003 0.365430 0 127 127
0.515558 0.013653 0.374758 0 127 127
-0.654595 0.013653 0.196748 76 153 0
-0.489746 -0.012732 -0.031835 127 0 127
0.103170 0.000209 -0.280234 153 0 76
0.156247 0.013653 0.304458 0 127 127
0.256164 -0.025924 0.169983 0 127 127
-0.594586 0.000461 0.140363 76 153 0
0.097057 -0.025924 0.117662 0 127 127
0.538538 0.026597 -0.307265 153 0 76
0.137344 0.026597 -0.165362 153 0 76
0.587456 -0.002216 -0.326944 153 0 76
0.179277 0.026597 -0.351306 153 0 76
-0.573040 0.000461 -0.061558 127 0 127
0.067126 0.001770 0.227854 0 127 127
0.263856 -0.003316 0.211803 0 127 127
-0.446976 0.000461 -0.021918 127 0 127
-0.618684 -0.012732 -0.094070 127 0 127
0.025019 -0.025924 0.181387 0 127 127
0.138707 0.000315 -0.347310 153 0 76
-0.557443 0.000461 -0.056837 127 0 127
-0.661845 0.000461 -0.084213 127 0 127
0.344933 -0.006587 0.405542 0 127 127
-0.315557 0.013653 0.054863 76 153 0
-0.652095 -0.005794 -0.066504 127 0 127
0.540057 -0.025924 0.373836 0 127 127
0.322658 -0.025924 0.184480 0 127 127
-0.093906 0.000461 -0.090656 76 153 0
0.334181 -0.012979 -0.227576 153 0 76
-0.021194 -0.012979 -0.179569 153 0 76
-0.750703 0.006639 0.177518 76 153 0
0.280297 -0.012979 -0.448531 153 0 76
0.538807 -0.000764 -0.276127 153 0 76
0.260107 0.013653 0.150271 0 127 127
-0.450382 0.013653 0.138998 76 153 0
-0.415098 0.000461 0.035548 76 153 0
-0.170701 -0.012732 0.005139 127 0 127
-0.878747 0.013653 0.249098 76 153 0
0.319742 0.026597 -0.239460 153 0 76
0.186679 -0.023127 0.252763 0 127 127
0.117773 -0.025924 0.175784 0 127 127
0.460570 0.013653 0.214637 0 127 127
-0.494038 -0.012732 -0.061355 127 0 127
0.362459 0.026031 -0.274191 153 0 76
-0.114838 -0.012732 0.074160 127 0 127
-0.700733 -0.012732 -0.132470 127 0 127
0.290791 -0.025924 0.155874 0 127 127
0.406665 0.026597 -0.225918 153 0 76
0.120470 -0.011922 -0.308495 153 0 76
-0.266437 0.013653 -0.017571 76 153 0
0.513177 0.026597 -0.316773 153 0 76
0.373281 -0.021010 0.441498 0 127 127
0.025043 -0.012979 -0.136914 153 0 76
0.099494 0.026597 -0.140300 153 0 76
0.248215 0.018930 -0.171675 153 0 76
-0.842498 0.000461 -0.135547 127 0 127
-0.275995 0.013653 0.053988 76 153 0
-0.561795 0.000461 -0.038064 127 0 127
0.178797 0.013653 0.206631 0 127 127
-0.046339 0.026597 -0.123367 153 0 76
0.014131 0.005243 -0.199261 153 0 76
0.508923 0.013653 0.266270 0 127 127
-0.916883 0.006467 0.253330 76 153 0
0.274883 0.026597 -0.183209 153 0 76
0.408393 -0.012979 -0.481372 153 0 76
-0.021903 0.000461 -0.121062 76 153 0
0.143686 0.009515 -0.134151 153 0 76
-0.634465 -0.012732 -0.134928 127 0 127
0.298974 -0.023946 0.434655 0 127 127
0.391536 -0.025924 0.427881 0 127 127
0.333021 -0.017441 0.438920 0 127 127
-0.038783 0.013653 0.127184 0 127 127
0.513310 -0.012979 -0.275544 153 0 76
0.242737 0.007281 -0.455520 153 0 76
-0.605784 0.000461 -0.057897 127 0 127
0.284128 -0.002944 -0.436488 153 0 76
0.047473 -0.012979 -0.138550 153 0 76
-0.825112 0.000461 -0.125722 127 0 127
0.340667 -0.012979 -0.457684 153 0 76
0.214152 -0.012979 -0.239918 153 0 76
-0.242797 0.000461 -0.013878 127 0 127
0.173958 -0.002140 -0.401392 153 0 76
0.222455 -0.025924 0.161231 0 127 127
0.083796 -0.012927 -0.112652 153 0 76
-0.229198 0.013653 -0.061132 76 153 0
0.548295 0.018123 -0.448522 153 0 76
0.360283 0.013653 0.209811 0 127 127
0.247042 0.026597 -0.447981 153 0 76
0.330454 0.002323 0.405298 0 127 127
0.325809 0.019221 -0.444409 153 0 76
-0.670222 0.000461 -0.080936 127 0 127
0.345403 0.013653 0.226686 0 127 127
0.171876 0.013653 0.220208 0 127 127
-0.266215 -0.012732 -0.045364 127 0 127
-0.046678 -0.012732 0.102511 127 0 127
0.268442 -0.013696 0.212596 0 127 127
-0.732347 -0.012732 -0.121585 127 0 127
-0.420657 0.013653 0.120597 76 153 0
0.140189 0.013653 0.122821 0 127 127
-0.287677 0.010490 -0.031674 76 153 0
-0.157846 0.013653 -0.032792 76 153 0
-0.390669 0.000461 0.008163 76 153 0
-0.074783 -0.017698 0.156286 0 127 127
-0.086488 -0.012979 -0.118342 153 0 76
-0.359783 0.013653 0.024319 76 153 0
-0.146195 -0.012732 0.075097 127 0 127
-0.829819 0.013653 0.236484 76 153 0
-0.079116 0.019939 -0.062258 153 0 76
-0.237271 0.000461 0.030879 76 153 0
0.299229 -0.025924 0.403538 0 127 127
-0.768372 0.013653 0.199365 76 153 0
-0.805359 -0.008315 -0.173231 127 0 127
-0.396868 0.000461 0.038117 76 153 0
0.477247 0.008880 0.260832 0 127 127
-0.422778 0.013653 0.038439 76 153 0
0.410791 -0.012979 -0.269964 153 0 76
0.554705 0.020575 -0.442742 153 0 76
-0.131003 0.000461 -0.026954 127 0 127
-0.683592 0.008601 0.222644 76 153 0
-0.013953 -0.012979 -0.126257 153 0 76
-0.698150 0.013653 0.172284 76 153 0
0.140835 -0.012979 -0.319077 153 0 76
0.181156 -0.004039 0.375314 0 127 127
0.283851 -0.025890 0.431994 0 127 127
-0.224492 0.013653 -0.046831 76 153 0
0.352493 -0.012979 -0.233301 153 0 76
0.138405 0.013653 0.309564 0 127 127
-0.083923 0.013653 0.114311 0 127 127
-0.686770 -0.004661 -0.075894 127 0 127
0.542685 0.026597 -0.422526 153 0 76
0.324173 -0.002750 -0.198943 153 0 76
-0.126189 0.000461 0.085950 127 0 127
-0.838801 0.013653 0.250895 76 153 0
-0.704171 0.000461 -0.150963 127 0 127
0.571830 -0.025924 0.297693 0 127 127
0.355299 0.007255 0.440667 0 127 127
-0.437231 0.013653 0.065750 76 153 0
0.535067 0.026597 -0.405349 153 0 76
-0.711069 0.000461 -0.086327 127 0 127
0.471332 -0.025924 0.207109 0 127 127
0.574318 -0.001683 0.371267 0 127 127
-0.268213 0.000461 0.035012 76 153 0
0.361687 -0.015292 0.233400 0 127 127
-0.675181 0.000461 0.157532 76 153 0
-0.395747 -0.012732 -0.068699 127 0 127
-0.263024 0.013653 -0.001628 76 153 0
0.380818 0.026597 -0.276855 153 0 76
-0.072086 0.001628 -0.083108 76 153 0
-0.323977 0.013653 -0.012398 76 153 0
0.375068 -0.006561 -0.485167 153 0 76
0.199444 -0.012979 -0.243993 153 0 76
0.406966 -0.025924 0.212270 0 127 127
-0.195786 0.013653 -0.078397 76 153 0
0.284076 -0.025924 0.180841 0 127 127
-0.650790 0.013653 0.176854 76 153 0
-0.300829 0.000461 -0.008522 76 153 0
-0.453459 -0.005525 -0.117912 127 0 127
-0.102465 -0.000469 -0.139895 153 0 76
-0.811501 -0.006299 -0.118460 127 0 127
0.437033 0.013653 0.229623 0 127 127
-0.506179 0.000461 0.149674 76 153 0
0.180366 0.002112 0.126007 0 127 127
-0.862677 -0.012732 -0.154768 127 0 127
0.343627 0.013653 0.207047 0 127 127
-0.359665 0.013653 0.045340 76 153 0
0.212782 -0.012979 -0.402066 153 0 76
0.519511 -0.001190 0.215397 0 127 127
-0.190081 -0.012732 -0.004173 127 0 127
-0.147155 0.013653 0.038791 76 153 0
-0.084074 0.026597 -0.079032 153 0 76
0.336963 -0.005018 0.228474 0 127 127
-0.550188 -0.012732 -0.063058 127 0 127
-0.520602 0.000461 -0.030662 127 0 127
-0.173607 0.000461 -0.088826 76 153 0
-0.400409 0.005527 0.015350 76 153 0
0.543454 -0.008269 -0.277799 153 0 76
0.504274 -0.005103 0.211373 0 127 127
0.394972 0.004630 -0.220462 153 0 76
-0.281426 0.000461 -0.044911 127 0 127
-0.444789 0.013480 0.040258 76 153 0
0.254165 0.013653 0.199944 0 127 127
0.587729 0.013653 0.322241 0 127 127
-0.248290 0.013653 0.062774 76 153 0
-0.161943 -0.012732 0.050782 127 0 127
0.189301 -0.012979 -0.262711 153 0 76
-0.311190 -0.005810 0.042924 127 0 127
-0.103511 0.008278 -0.089057 153 0 76
-0.282118 -0.012732 -0.054618 127 0 127
-0.365338 0.013653 0.031117 76 153 0
0.474995 0.013653 0.232720 0 127 127
-0.240452 0.013653 0.049657 76 153 0
0.123657 -0.012979 -0.207161 153 0 76
0.522049 0.013653 0.405924 0 127 127
0.210110 0.013653 0.384331 0 127 127
-0.462731 0.000461 -0.056824 127 0 127
0.574930 -0.025924 0.353442 0 127 127
-0.743849 0.000461 -0.164558 127 0 127
-0.330213 0.000461 0.085971 76 153 0
-0.865929 -0.012732 -0.168213 127 0 127
-0.710782 0.000461 -0.131580 127 0 127
0.214609 0.013653 0.194010 0 127 127
0.391048 -0.009140 0.181471 0 127 127
-0.179749 -0.012732 0.009182 127 0 127
0.525734 -0.017526 0.274528 0 127 127
-0.674276 0.013653 0.155678 76 153 0
-0.061229 -0.001941 -0.060591 153 0 76
0.022887 0.007111 -0.090787 153 0 76
-0.224992 0.000461 0.061720 76 153 0
-0.354026 0.000461 -0.038904 127 0 127
0.091611 0.008589 -0.265019 153 0 76
-0.080810 -0.017768 0.057259 0 127 127
-0.820250 0.000461 0.221241 76 153 0
0.312953 -0.007214 0.160907 0 127 127
0.115025 -0.012979 -0.266418 153 0 76
0.541598 -0.005379 0.345724 0 127 127
0.387199 0.013653 0.418954 0 127 127
-0.005199 -0.012979 -0.140648 153 0 76
-0.479171 0.000461 0.156269 76 153 0
-0.058192 0.026597 -0.084996 153 0 76
-0.274299 -0.001422 -0.080577 127 0 127
-0.395719 0.000461 0.103193 76 153 0
-0.044428 -0.012979 -0.076923 153 0 76
-0.004416 -0.025924 0.083863 0 127 127
-0.191311 -0.012732 0.047287 127 0 127
0.554437 0.026597 -0.341509 153 0 76
-0.129394 -0.012732 0.088403 127 0 127
0.404086 0.026597 -0.274505 153 0 76
0.526952 -0.021716 0.217362 0 127 127
0.477006 0.013653 0.414339 0 127 127
0.084873 -0.012979 -0.231377 153 0 76
-0.210755 -0.012732 -0.012749 127 0 127
0.134615 0.026597 -0.274219 153 0 76
-0.147255 0.000461 -0.009062 76 153 0
-0.120684 0.006401 -0.120878 76 153 0
-0.037517 -0.025924 0.102659 0 127 127
-0.176602 0.013653 -0.012133 76 153 0
-0.748491 0.000461 -0.123910 127 0 127
0.527489 -0.003657 0.365393 0 127 127
-0.152760 0.000461 -0.025649 76 153 0
0.052889 -0.025924 0.207867 0 127 127
0.178988 0.026597 -0.395568 153 0 76
-0.085603 -0.012979 -0.097707 153 0 76
-0.490277 -0.012732 -0.041891 127 0 127
-0.488212 0.000461 -0.097790 127 0 127
-0.496510 0.000461 -0.054023 127 0 127
0.379497 0.008949 0.237164 0 127 127
-0.397469 0.008922 0.139308 76 153 0
0.295246 0.026597 -0.459315 153 0 76
0.591851 -0.017303 0.338136 0 127 127
0.015896 0.013653 0.138993 0 127 127
-0.114791 0.000461 -0.019593 76 153 0
0.007659 -0.025924 0.096655 0 127 127
0.361358 0.002554 -0.483736 153 0 76
0.184476 0.010712 0.304828 0 127 127
0.507334 -0.007666 0.425994 0 127 127
-0.482898 -0.008577 -0.123452 127 0 127
0.528426 0.006488 0.364574 0 127 127
-0.277582 0.000461 0.026652 127 0 127
0.107056 -0.025924 0.136076 0 127 127
0.127219 0.005625 -0.128240 153 0 76
0.434870 0.026597 -0.464276 153 0 76
0.569501 -0.012979 -0.330182 153 0 76
-0.049649 0.000461 -0.135499 76 153 0
0.284080 -0.017975 0.399042 0 127 127
0.182430 0.011264 0.269155 0 127 127
-0.167483 0.013653 -0.064024 76 153 0
0.082920 -0.025924 0.149740 0 127 127
0.510437 0.012092 -0.265917 153 0 76
-0.580732 0.000461 0.188623 76 153 0
0.234739 0.013653 0.405155 0 127 127
0.528490 0.004650 -0.272414 153 0 76
0.266404 0.026597 -0.436076 153 0 76
0.155186 -0.012979 -0.375152 153 0 76
0.356496 -0.025924 0.411307 0 127 127
-0.798939 0.013653 0.216255 76 153 0
0.528068 -0.005708 -0.412704 153 0 76
-0.736944 0.013653 0.199629 76 153 0
-0.540820 0.000461 -0.129399 127 0 127
0.137748 -0.012979 -0.177969 153 0 76
-0.359754 0.000461 -0.028696 127 0 127
-0.465776 0.013653 0.118475 76 153 0
0.556481 -0.012979 -0.401936 153 0 76
0.489593 -0.012979 -0.282515 153 0 76
-0.947453 0.004308 0.282841 76 153 0
-0.062423 -0.025924 0.136204 0 127 127
0.316999 -0.025321 0.404333 0 127 127
0.183290 0.018955 -0.332684 153 0 76
0.230891 0.013653 0.211488 0 127 127
0.339998 0.013653 0.176684 0 127 127
0.115621 -0.012979 -0.143223 153 0 76
0.165983 0.013653 0.324160 0 127 127
0.012321 0.018416 -0.086994 153 0 76
0.422442 0.017467 -0.234248 153 0 76
-0.378122 0.000461 0.125786 76 153 0
0.110278 0.026597 -0.275359 153 0 76
-0.681668 0.000461 0.171250 76 153 0
0.292339 0.005969 -0.471772 153 0 76
0.229076 0.008944 -0.448603 153 0 76
0.421127 -0.025924 0.218264 0 127 127
0.085335 0.013653 0.178049 0 127 127
-0.254567 -0.012732 -0.062848 127 0 127
-0.009614 0.026597 -0.083008 153 0 76
0.435502 -0.015768 0.181476 0 127 127
0.209467 -0.004917 -0.387507 153 0 76
-0.470511 0.000461 -0.074155 127 0 127
-0.197033 0.013653 -0.040561 76 153 0
0.245951 -0.025924 0.143567 0 127 127
-0.332591 0.013653 0.003609 76 153 0
0.451472 0.003453 -0.233176 153 0 76
-0.277508 0.013653 0.087737 76 153 0
0.178038 -0.012979 -0.203262 153 0 76
0.553203 -0.025924 0.272613 0 127 127
-0.007053 0.026597 -0.107755 153 0 76
-0.095175 0.011307 -0.143606 153 0 76
0.347685 -0.012979 -0.478576 153 0 76
0.424487 -0.003644 -0.234984 153 0 76
0.421805 -0.025924 0.177614 0 127 127
0.543512 -0.024711 0.300395 0 127 127
0.447677 0.013653 0.430785 0 127 127
0.469431 0.018279 -0.437589 153 0 76
-0.385182 -0.012732 -0.009273 127 0 127
0.563378 0.013653 0.294809 0 127 127
0.136134 -0.012979 -0.203442 153 0 76
0.409338 0.013653 0.406908 0 127 127
-0.075472 -0.012979 -0.074733 153 0 76
0.190014 0.026597 -0.409332 153 0 76
0.252155 0.011077 0.422761 0 127 127
-0.034390 0.000461 -0.108316 76 153 0
0.216500 0.009816 -0.395858 153 0 76
-0.644101 0.000461 0.170621 76 153 0
-0.675331 0.013653 0.195745 76 153 0
0.076414 0.026597 -0.146155 153 0 76
0.559867 0.013653 0.348279 0 127 127
0.371763 0.018339 -0.276992 153 0 76
0.180696 0.026597 -0.163856 153 0 76
0.167094 -0.003550 -0.142554 153 0 76
0.118209 -0.012979 -0.246654 153 0 76
-0.217385 -0.012732 -0.037650 127 0 127
-0.386490 0.000461 0.102921 76 153 0
-0.069099 0.013653 0.095180 0 127 127
0.304854 0.004667 0.435535 0 127 127
0.179952 -0.012979 -0.167983 153 0 76
0.570758 0.026597 -0.338940 153 0 76
-0.561707 0.000461 -0.129741 127 0 127
-0.629407 0.000461 0.186040 76 153 0
0.122147 -0.025924 0.217006 0 127 127
-0.526828 -0.012732 -0.065365 127 0 127
0.165668 -0.025924 0.229470 0 127 127
-0.118956 -0.005334 0.034652 127 0 127
0.514673 -0.003347 0.271297 0 127 127
0.279722 -0.015195 0.215451 0 127 127
-0.132572 0.000461 0.060382 127 0 127
-0.760629 0.000461 -0.165517 127 0 127
