ply
format ascii 1.0
element vertex 649
property float x
property float y
property float z
property float nx
property float ny
property float nz
property uchar red
property uchar green
property uchar blue
property float opacity
end_header
-0.127507 0.322098 0.010344 0.000000 0.000000 -1.000000 8 56 52 0.100000
0.342778 0.017880 -0.007289 0.000000 0.000000 -1.000000 8 56 52 0.100000
0.025389 0.054632 0.010330 0.000000 0.000000 -1.000000 8 56 52 0.100000
0.318577 0.387576 0.010330 0.000000 -0.000000 1.000000 8 56 52 0.100000
0.056313 0.067144 0.010330 0.000000 -0.000000 1.000000 8 56 52 0.100000
-0.395785 -0.011585 -0.007276 0.000000 -0.000000 1.000000 8 56 52 0.100000
0.195290 0.272565 -0.007289 0.000000 -0.000000 1.000000 8 56 52 0.100000
-0.209083 -0.306789 0.010344 0.000000 0.000000 -1.000000 8 56 52 0.100000
0.079712 -0.111543 -0.007289 0.000000 0.000000 -1.000000 8 56 52 0.100000
0.102827 0.376682 -0.007289 0.000000 -0.000000 1.000000 8 56 52 0.100000
-0.243217 -0.343453 -0.007276 0.000000 0.000000 -1.000000 8 56 52 0.100000
-0.027825 -0.059036 0.010344 0.000000 0.000000 -1.000000 8 56 52 0.100000
-0.217090 0.118714 0.010344 0.000000 0.000000 -1.000000 8 56 52 0.100000
-0.442500 0.289404 0.004699 -1.000000 0.000000 0.000000 8 56 52 0.100000
0.370487 -0.200982 -0.007289 0.000000 0.000000 -1.000000 8 56 52 0.100000
-0.025501 0.020414 -0.025076 -0.268849 -0.000000 0.963182 16 19 24 1.000000
-0.364986 0.253572 0.010344 0.000000 0.000000 -1.000000 8 56 52 0.100000
-0.431392 -0.153046 0.010344 0.000000 -0.000000 1.000000 8 56 52 0.100000
-0.188619 0.044936 0.010344 0.000000 -0.000000 1.000000 8 56 52 0.100000
0.000489 0.025905 0.010330 0.000000 0.000000 -1.000000 8 56 52 0.100000
0.424011 0.115386 -0.007289 0.000000 -0.000000 1.000000 8 56 52 0.100000
0.082122 -0.143706 0.010330 0.000000 0.000000 -1.000000 8 56 52 0.100000
0.318043 0.377104 0.010330 0.000000 -0.000000 1.000000 8 56 52 0.100000
-0.085085 -0.175058 -0.007276 0.000000 -0.000000 1.000000 8 56 52 0.100000
0.027983 -0.040264 0.035948 0.997184 0.000000 -0.074995 25 28 33 1.000000
-0.056216 0.096630 -0.007276 0.000000 -0.000000 1.000000 8 56 52 0.100000
-0.761778 0.480069 -0.009479 0.000000 -0.000000 1.000000 28 31 36 1.000000
-0.120528 -0.212624 0.010344 0.000000 -0.000000 1.000000 8 56 52 0.100000
-0.350263 0.378631 -0.007276 0.000000 0.000000 -1.000000 8 56 52 0.100000
0.322102 -0.446146 -0.003258 0.000000 1.000000 0.000000 14 16 17 1.000000
0.334017 -0.441741 -0.014188 0.000000 1.000000 0.000000 19 23 23 1.000000
0.119290 -0.226252 -0.007289 0.000000 0.000000 -1.000000 8 56 52 0.100000
-0.360870 0.086211 -0.007276 0.000000 0.000000 -1.000000 8 56 52 0.100000
-0.217279 -0.160765 -0.007276 0.000000 0.000000 -1.000000 8 56 52 0.100000
-0.108913 0.158806 -0.007276 0.000000 -0.000000 1.000000 8 56 52 0.100000
-0.151550 -0.113051 -0.007276 0.000000 0.000000 -1.000000 8 56 52 0.100000
-0.065741 -0.296096 0.010344 0.000000 0.000000 -1.000000 8 56 52 0.100000
-0.195627 -0.441741 -0.010267 0.000000 1.000000 0.000000 22 24 25 1.000000
0.429940 -0.066157 0.010330 0.000000 0.000000 -1.000000 8 56 52 0.100000
0.733752 0.483292 0.003000 0.000000 1.000000 0.000000 21 24 29 1.000000
-0.078527 -0.194262 -0.007276 0.000000 0.000000 -1.000000 8 56 52 0.100000
-0.250781 0.006693 -0.007276 0.000000 -0.000000 1.000000 8 56 52 0.100000
0.172838 0.252190 -0.007289 0.000000 -0.000000 1.000000 8 56 52 0.100000
0.364232 -0.323388 -0.007289 0.000000 -0.000000 1.000000 8 56 52 0.100000
-0.028448 -0.057025 0.043982 0.566346 0.000000 -0.824167 18 20 21 1.000000
-0.381897 -0.109257 -0.007276 0.000000 -0.000000 1.000000 8 56 52 0.100000
-0.113137 0.041572 0.010344 0.000000 -0.000000 1.000000 8 56 52 0.100000
0.068868 0.350474 0.010330 0.000000 0.000000 -1.000000 8 56 52 0.100000
-0.087903 0.098217 -0.007276 0.000000 0.000000 -1.000000 8 56 52 0.100000
-0.010769 -0.167418 0.010344 0.000000 -0.000000 1.000000 8 56 52 0.100000
0.166102 -0.172556 -0.007289 0.000000 -0.000000 1.000000 8 56 52 0.100000
0.383053 0.142284 0.010330 0.000000 -0.000000 1.000000 8 56 52 0.100000
-0.414958 0.100204 -0.007276 0.000000 -0.000000 1.000000 8 56 52 0.100000
0.338686 -0.347614 -0.007289 0.000000 -0.000000 1.000000 8 56 52 0.100000
-0.155248 -0.413765 0.010344 0.000000 0.000000 -1.000000 8 56 52 0.100000
0.187414 -0.080366 -0.007289 0.000000 0.000000 -1.000000 8 56 52 0.100000
0.327900 0.212140 0.010330 0.000000 0.000000 -1.000000 8 56 52 0.100000
-0.053803 -0.248237 -0.007276 0.000000 0.000000 -1.000000 8 56 52 0.100000
-0.172131 -0.214601 -0.007276 0.000000 0.000000 -1.000000 8 56 52 0.100000
0.190431 0.133615 -0.007289 0.000000 0.000000 -1.000000 8 56 52 0.100000
0.077294 -0.022409 0.010330 0.000000 0.000000 -1.000000 8 56 52 0.100000
-0.366889 0.164528 -0.007276 0.000000 0.000000 -1.000000 8 56 52 0.100000
-0.085908 -0.145628 -0.007276 0.000000 -0.000000 1.000000 8 56 52 0.100000
-0.382346 0.196218 -0.007276 0.000000 0.000000 -1.000000 8 56 52 0.100000
0.079498 -0.410166 0.010330 0.000000 -0.000000 1.000000 8 56 52 0.100000
0.067477 0.317915 -0.007289 0.000000 -0.000000 1.000000 8 56 52 0.100000
0.138497 0.004201 -0.007289 0.000000 -0.000000 1.000000 8 56 52 0.100000
0.045123 0.245042 -0.007289 0.000000 0.000000 -1.000000 8 56 52 0.100000
0.210124 -0.162438 -0.007289 0.000000 0.000000 -1.000000 8 56 52 0.100000
0.388014 -0.276584 0.010330 0.000000 -0.000000 1.000000 8 56 52 0.100000
-0.377862 -0.037724 -0.007276 0.000000 0.000000 -1.000000 8 56 52 0.100000
0.293241 0.268131 0.010330 0.000000 0.000000 -1.000000 8 56 52 0.100000
-0.409413 0.089928 0.010344 0.000000 -0.000000 1.000000 8 56 52 0.100000
0.437373 0.037622 -0.007289 0.000000 0.000000 -1.000000 8 56 52 0.100000
0.173232 0.169470 0.010330 0.000000 0.000000 -1.000000 8 56 52 0.100000
0.388850 0.208617 -0.007289 0.000000 -0.000000 1.000000 8 56 52 0.100000
-0.081564 -0.299323 0.010344 0.000000 -0.000000 1.000000 8 56 52 0.100000
-0.366737 -0.292817 -0.007276 0.000000 0.000000 -1.000000 8 56 52 0.100000
-0.221121 0.290168 0.010344 0.000000 -0.000000 1.000000 8 56 52 0.100000
0.078088 -0.153665 -0.007289 0.000000 -0.000000 1.000000 8 56 52 0.100000
-0.076154 -0.002670 -0.007276 0.000000 -0.000000 1.000000 8 56 52 0.100000
0.355593 0.384601 -0.007289 0.000000 0.000000 -1.000000 8 56 52 0.100000
0.236195 -0.143226 -0.007289 0.000000 -0.000000 1.000000 8 56 52 0.100000
0.026944 -0.015492 -0.007289 0.000000 -0.000000 1.000000 8 56 52 0.100000
0.127189 0.348009 -0.007289 0.000000 -0.000000 1.000000 8 56 52 0.100000
0.279459 0.243103 -0.007289 0.000000 0.000000 -1.000000 8 56 52 0.100000
0.608763 -0.446146 0.002469 0.000000 -1.000000 -0.000000 20 22 23 1.000000
0.147761 0.031956 -0.007289 0.000000 -0.000000 1.000000 8 56 52 0.100000
-0.182264 -0.236221 0.010344 0.000000 0.000000 -1.000000 8 56 52 0.100000
0.009427 0.445182 0.010330 0.000000 0.000000 -1.000000 8 56 52 0.100000
-0.027568 0.093571 0.010344 0.000000 -0.000000 1.000000 8 56 52 0.100000
-0.192591 -0.168344 -0.007276 0.000000 0.000000 -1.000000 8 56 52 0.100000
0.030909 -0.250485 0.010330 0.000000 -0.000000 1.000000 8 56 52 0.100000
-0.274833 -0.370362 0.010344 0.000000 -0.000000 1.000000 8 56 52 0.100000
-0.077218 0.207981 -0.007276 0.000000 0.000000 -1.000000 8 56 52 0.100000
-0.277586 -0.307659 0.010344 0.000000 -0.000000 1.000000 8 56 52 0.100000
0.015900 -0.184519 0.010330 0.000000 -0.000000 1.000000 8 56 52 0.100000
0.170676 -0.226886 -0.007289 0.000000 -0.000000 1.000000 8 56 52 0.100000
0.231862 -0.118917 -0.007289 0.000000 -0.000000 1.000000 8 56 52 0.100000
-0.229880 -0.043041 0.010344 0.000000 0.000000 -1.000000 8 56 52 0.100000
0.182295 -0.424953 -0.007289 0.000000 -0.000000 1.000000 8 56 52 0.100000
-0.441040 -0.187614 0.010344 0.000000 0.000000 -1.000000 8 56 52 0.100000
-0.257959 0.343310 -0.007276 0.000000 0.000000 -1.000000 8 56 52 0.100000
0.225771 0.060733 -0.007289 0.000000 0.000000 -1.000000 8 56 52 0.100000
-0.206379 -0.098531 -0.007276 0.000000 -0.000000 1.000000 8 56 52 0.100000
-0.330591 0.294754 0.010344 0.000000 -0.000000 1.000000 8 56 52 0.100000
0.258046 -0.256078 0.010330 0.000000 -0.000000 1.000000 8 56 52 0.100000
0.068007 -0.001376 0.010330 0.000000 0.000000 -1.000000 8 56 52 0.100000
-0.258270 0.085728 0.010344 0.000000 -0.000000 1.000000 8 56 52 0.100000
-0.349850 -0.338327 -0.007276 0.000000 0.000000 -1.000000 8 56 52 0.100000
0.086287 -0.027456 -0.007289 0.000000 -0.000000 1.000000 8 56 52 0.100000
-0.051311 0.462387 -0.007276 0.000000 0.000000 -1.000000 8 56 52 0.100000
-0.217147 0.193925 -0.007276 0.000000 0.000000 -1.000000 8 56 52 0.100000
0.242467 -0.151616 0.010330 0.000000 0.000000 -1.000000 8 56 52 0.100000
-0.133961 0.163422 -0.007276 0.000000 0.000000 -1.000000 8 56 52 0.100000
0.137131 0.355455 0.010330 0.000000 0.000000 -1.000000 8 56 52 0.100000
0.064822 -0.191937 0.010330 0.000000 0.000000 -1.000000 8 56 52 0.100000
0.320748 0.360863 -0.007289 0.000000 0.000000 -1.000000 8 56 52 0.100000
0.348602 -0.294288 0.010330 0.000000 0.000000 -1.000000 8 56 52 0.100000
-0.106462 -0.065551 -0.007276 0.000000 0.000000 -1.000000 8 56 52 0.100000
-0.175578 -0.037872 0.010344 0.000000 -0.000000 1.000000 8 56 52 0.100000
0.033409 0.356518 0.010330 0.000000 0.000000 -1.000000 8 56 52 0.100000
-0.137489 0.471140 -0.007276 0.000000 -0.000000 1.000000 8 56 52 0.100000
-0.370659 -0.267742 -0.007276 0.000000 -0.000000 1.000000 8 56 52 0.100000
0.312905 -0.173198 0.010330 0.000000 0.000000 -1.000000 8 56 52 0.100000
-0.009044 0.405364 0.010344 0.000000 0.000000 -1.000000 8 56 52 0.100000
-0.171787 0.439779 -0.007276 0.000000 0.000000 -1.000000 8 56 52 0.100000
0.031514 0.058633 -0.007289 0.000000 0.000000 -1.000000 8 56 52 0.100000
0.129711 -0.234016 0.010330 0.000000 -0.000000 1.000000 8 56 52 0.100000
-0.385319 -0.300634 0.010344 0.000000 0.000000 -1.000000 8 56 52 0.100000
-0.385597 0.279382 0.010344 0.000000 -0.000000 1.000000 8 56 52 0.100000
-0.280671 0.121702 0.010344 0.000000 -0.000000 1.000000 8 56 52 0.100000
0.438308 0.204114 -0.007289 0.000000 0.000000 -1.000000 8 56 52 0.100000
-0.392471 0.157218 -0.007276 0.000000 0.000000 -1.000000 8 56 52 0.100000
0.099021 -0.046642 -0.007289 0.000000 0.000000 -1.000000 8 56 52 0.100000
0.013973 0.015697 -0.027041 -0.647652 -0.000000 0.761937 18 20 21 1.000000
-0.350827 0.408051 -0.007276 0.000000 0.000000 -1.000000 8 56 52 0.100000
0.427641 0.094089 -0.007289 0.000000 0.000000 -1.000000 8 56 52 0.100000
0.365043 0.200299 0.010330 0.000000 -0.000000 1.000000 8 56 52 0.100000
-0.082851 -0.443943 0.002339 0.000000 -1.000000 -0.000000 24 27 32 1.000000
0.100662 0.348103 -0.007289 0.000000 0.000000 -1.000000 8 56 52 0.100000
0.209936 0.272285 0.010330 0.000000 -0.000000 1.000000 8 56 52 0.100000
0.855769 0.483292 -0.009373 0.000000 -1.000000 -0.000000 29 31 32 1.000000
0.168524 0.150093 0.010330 0.000000 0.000000 -1.000000 8 56 52 0.100000
0.058009 0.483292 -0.022814 0.000000 1.000000 0.000000 20 22 23 1.000000
-0.317223 0.121965 0.010344 0.000000 -0.000000 1.000000 8 56 52 0.100000
0.412844 -0.414129 0.010330 0.000000 0.000000 -1.000000 8 56 52 0.100000
0.284476 -0.332961 -0.007289 0.000000 -0.000000 1.000000 8 56 52 0.100000
-0.127459 0.078982 -0.007276 0.000000 0.000000 -1.000000 8 56 52 0.100000
-0.248026 -0.243104 -0.007276 0.000000 0.000000 -1.000000 8 56 52 0.100000
0.024637 0.369099 -0.007289 0.000000 0.000000 -1.000000 8 56 52 0.100000
0.006992 -0.417342 0.010330 0.000000 0.000000 -1.000000 8 56 52 0.100000
-0.050614 0.451285 0.010344 0.000000 -0.000000 1.000000 8 56 52 0.100000
0.386495 -0.320247 0.010330 0.000000 -0.000000 1.000000 8 56 52 0.100000
0.205552 0.040675 0.010330 0.000000 -0.000000 1.000000 8 56 52 0.100000
-0.344993 0.065458 0.010344 0.000000 0.000000 -1.000000 8 56 52 0.100000
0.106676 0.134051 -0.007289 0.000000 -0.000000 1.000000 8 56 52 0.100000
-0.432520 0.483292 -0.014318 0.000000 -1.000000 -0.000000 20 23 28 1.000000
0.328473 -0.028936 0.010330 0.000000 -0.000000 1.000000 8 56 52 0.100000
-0.212465 0.228505 -0.007276 0.000000 -0.000000 1.000000 8 56 52 0.100000
-0.172620 0.046942 -0.007276 0.000000 0.000000 -1.000000 8 56 52 0.100000
0.813934 -0.441741 0.011909 0.000000 1.000000 0.000000 17 20 25 1.000000
0.214051 -0.334386 -0.007289 0.000000 -0.000000 1.000000 8 56 52 0.100000
0.114269 0.010015 -0.007289 0.000000 -0.000000 1.000000 8 56 52 0.100000
-0.336904 0.127558 0.010344 0.000000 -0.000000 1.000000 8 56 52 0.100000
-0.235717 0.201719 -0.007276 0.000000 -0.000000 1.000000 8 56 52 0.100000
-0.436028 -0.394083 0.010344 0.000000 0.000000 -1.000000 8 56 52 0.100000
-0.308490 -0.213419 0.010344 0.000000 0.000000 -1.000000 8 56 52 0.100000
0.047256 0.108944 0.010330 0.000000 -0.000000 1.000000 8 56 52 0.100000
0.235194 -0.406234 0.010330 0.000000 -0.000000 1.000000 8 56 52 0.100000
-0.101836 0.247163 0.010344 0.000000 0.000000 -1.000000 8 56 52 0.100000
-0.426968 0.214051 0.010344 0.000000 -0.000000 1.000000 8 56 52 0.100000
-0.250423 0.336001 -0.007276 0.000000 -0.000000 1.000000 8 56 52 0.100000
0.058057 0.381345 -0.007289 0.000000 -0.000000 1.000000 8 56 52 0.100000
-0.188342 -0.154427 0.010344 0.000000 0.000000 -1.000000 8 56 52 0.100000
0.089618 0.151058 0.010330 0.000000 -0.000000 1.000000 8 56 52 0.100000
-0.173529 -0.066243 -0.007276 0.000000 -0.000000 1.000000 8 56 52 0.100000
-0.224972 -0.400449 -0.007276 0.000000 -0.000000 1.000000 8 56 52 0.100000
-0.442500 0.018690 -0.005662 -1.000000 0.000000 0.000000 8 56 52 0.100000
0.198291 -0.022391 0.010330 0.000000 -0.000000 1.000000 8 56 52 0.100000
-0.095930 -0.225684 0.010344 0.000000 -0.000000 1.000000 8 56 52 0.100000
0.386740 0.430543 0.010330 0.000000 0.000000 -1.000000 8 56 52 0.100000
-0.442500 0.387188 0.002829 -1.000000 0.000000 0.000000 8 56 52 0.100000
0.433218 0.264715 -0.007289 0.000000 0.000000 -1.000000 8 56 52 0.100000
-0.431517 -0.126841 -0.007276 0.000000 -0.000000 1.000000 8 56 52 0.100000
-0.237790 0.455166 0.010344 0.000000 -0.000000 1.000000 8 56 52 0.100000
-0.129884 -0.312440 -0.007276 0.000000 0.000000 -1.000000 8 56 52 0.100000
-0.124191 -0.408745 -0.007276 0.000000 0.000000 -1.000000 8 56 52 0.100000
-0.136255 -0.277358 -0.007276 0.000000 -0.000000 1.000000 8 56 52 0.100000
-0.324253 -0.321907 -0.007276 0.000000 0.000000 -1.000000 8 56 52 0.100000
0.047604 -0.236752 0.010330 0.000000 -0.000000 1.000000 8 56 52 0.100000
0.120428 -0.255076 -0.007289 0.000000 0.000000 -1.000000 8 56 52 0.100000
0.287728 0.055442 -0.007289 0.000000 -0.000000 1.000000 8 56 52 0.100000
-0.047274 0.481523 -0.035908 0.000000 -0.000000 1.000000 23 26 31 1.000000
0.336046 -0.300503 0.010330 0.000000 0.000000 -1.000000 8 56 52 0.100000
0.034946 0.059206 0.010330 0.000000 -0.000000 1.000000 8 56 52 0.100000
-0.362135 0.481342 -0.035908 0.000000 0.000000 -1.000000 24 27 32 1.000000
0.420661 -0.124718 0.010330 0.000000 0.000000 -1.000000 8 56 52 0.100000
-0.110983 0.258349 -0.007276 0.000000 -0.000000 1.000000 8 56 52 0.100000
0.241219 0.288797 0.010330 0.000000 -0.000000 1.000000 8 56 52 0.100000
0.340596 -0.096852 -0.007289 0.000000 -0.000000 1.000000 8 56 52 0.100000
0.002033 -0.051888 0.010330 0.000000 -0.000000 1.000000 8 56 52 0.100000
0.103995 0.241459 0.010330 0.000000 -0.000000 1.000000 8 56 52 0.100000
-0.419746 -0.308176 0.010344 0.000000 0.000000 -1.000000 8 56 52 0.100000
0.106072 -0.037365 0.010330 0.000000 0.000000 -1.000000 8 56 52 0.100000
-0.141526 -0.443195 0.012533 0.000000 -0.000000 1.000000 19 22 27 1.000000
0.026696 -0.002323 0.031948 -0.847552 -0.000000 0.530712 18 20 21 1.000000
-0.330644 0.168709 0.010344 0.000000 -0.000000 1.000000 8 56 52 0.100000
0.409720 -0.308890 -0.007289 0.000000 0.000000 -1.000000 8 56 52 0.100000
0.259911 -0.214901 0.010330 0.000000 0.000000 -1.000000 8 56 52 0.100000
0.066733 0.297306 0.010330 0.000000 -0.000000 1.000000 8 56 52 0.100000
0.047081 0.122837 0.010330 0.000000 0.000000 -1.000000 8 56 52 0.100000
0.252227 0.346721 -0.007289 0.000000 0.000000 -1.000000 8 56 52 0.100000
-0.263440 -0.281986 0.010344 0.000000 0.000000 -1.000000 8 56 52 0.100000
0.414688 -0.046860 0.010330 0.000000 -0.000000 1.000000 8 56 52 0.100000
0.358596 0.368417 0.010330 0.000000 -0.000000 1.000000 8 56 52 0.100000
-0.442500 0.132365 -0.004580 -1.000000 0.000000 0.000000 8 56 52 0.100000
-0.303638 0.030291 0.010344 0.000000 -0.000000 1.000000 8 56 52 0.100000
-0.023867 -0.275647 0.010344 0.000000 -0.000000 1.000000 8 56 52 0.100000
-0.014778 -0.234362 -0.007276 0.000000 -0.000000 1.000000 8 56 52 0.100000
0.010909 -0.088248 -0.012328 -0.996132 -0.087867 -0.000000 21 24 29 1.000000
-0.051385 0.478887 -0.026773 0.000000 1.000000 0.000000 22 23 29 1.000000
0.427278 -0.003434 -0.007289 0.000000 -0.000000 1.000000 8 56 52 0.100000
-0.286965 0.003556 0.010344 0.000000 0.000000 -1.000000 8 56 52 0.100000
0.152446 -0.436478 -0.007289 0.000000 0.000000 -1.000000 8 56 52 0.100000
0.274325 -0.344637 -0.007289 0.000000 0.000000 -1.000000 8 56 52 0.100000
0.336993 0.060066 0.010330 0.000000 0.000000 -1.000000 8 56 52 0.100000
0.360150 0.095402 0.010330 0.000000 -0.000000 1.000000 8 56 52 0.100000
-0.033295 -0.104845 0.010344 0.000000 0.000000 -1.000000 8 56 52 0.100000
0.178670 0.289670 -0.007289 0.000000 -0.000000 1.000000 8 56 52 0.100000
-0.412709 -0.267427 -0.007276 0.000000 0.000000 -1.000000 8 56 52 0.100000
-0.009085 0.336630 0.010344 0.000000 0.000000 -1.000000 8 56 52 0.100000
0.038979 -0.036747 0.010330 0.000000 0.000000 -1.000000 8 56 52 0.100000
0.282797 -0.089495 0.010330 0.000000 -0.000000 1.000000 8 56 52 0.100000
-0.070309 0.457169 -0.007276 0.000000 0.000000 -1.000000 8 56 52 0.100000
0.079781 -0.323279 -0.007289 0.000000 0.000000 -1.000000 8 56 52 0.100000
-0.046640 0.357312 -0.007276 0.000000 -0.000000 1.000000 8 56 52 0.100000
0.075317 -0.446146 -0.011026 0.000000 1.000000 0.000000 12 13 19 1.000000
0.013829 0.184615 -0.007289 0.000000 -0.000000 1.000000 8 56 52 0.100000
-0.014504 -0.054900 -0.032199 0.987976 -0.000000 0.154608 20 22 23 1.000000
0.014755 0.216040 -0.007289 0.000000 0.000000 -1.000000 8 56 52 0.100000
0.178592 -0.326075 -0.007289 0.000000 0.000000 -1.000000 8 56 52 0.100000
0.360964 -0.262805 -0.007289 0.000000 -0.000000 1.000000 8 56 52 0.100000
-0.414565 0.458221 -0.007276 0.000000 -0.000000 1.000000 8 56 52 0.100000
-0.030125 0.474516 0.010344 0.000000 0.000000 -1.000000 8 56 52 0.100000
0.089274 0.088083 -0.007289 0.000000 0.000000 -1.000000 8 56 52 0.100000
-0.137440 0.116869 -0.007276 0.000000 0.000000 -1.000000 8 56 52 0.100000
0.239323 0.169308 0.010330 0.000000 0.000000 -1.000000 8 56 52 0.100000
-0.426167 0.185672 -0.007276 0.000000 -0.000000 1.000000 8 56 52 0.100000
0.227738 0.279353 0.010330 0.000000 0.000000 -1.000000 8 56 52 0.100000
-0.259560 0.481092 0.012546 0.000000 -0.000000 1.000000 18 20 21 1.000000
-0.024059 0.299556 0.010344 0.000000 0.000000 -1.000000 8 56 52 0.100000
-0.005399 -0.133612 0.010344 0.000000 -0.000000 1.000000 8 56 52 0.100000
-0.110223 -0.158519 0.010344 0.000000 -0.000000 1.000000 8 56 52 0.100000
0.259182 0.460294 -0.007289 0.000000 -0.000000 1.000000 8 56 52 0.100000
-0.164179 0.077037 -0.007276 0.000000 -0.000000 1.000000 8 56 52 0.100000
0.096171 -0.268813 -0.007289 0.000000 0.000000 -1.000000 8 56 52 0.100000
-0.327878 -0.237604 0.010344 0.000000 -0.000000 1.000000 8 56 52 0.100000
-0.317925 0.483292 -0.025625 0.000000 1.000000 0.000000 18 20 21 1.000000
0.214132 -0.167739 0.010330 0.000000 0.000000 -1.000000 8 56 52 0.100000
-0.102791 -0.038407 0.010344 0.000000 0.000000 -1.000000 8 56 52 0.100000
-0.166628 -0.446146 -0.008696 0.000000 1.000000 0.000000 21 24 29 1.000000
-0.159315 0.049002 0.010344 0.000000 -0.000000 1.000000 8 56 52 0.100000
0.058080 -0.026216 0.010330 0.000000 0.000000 -1.000000 8 56 52 0.100000
-0.258272 0.200814 -0.007276 0.000000 -0.000000 1.000000 8 56 52 0.100000
-0.365708 0.310057 0.010344 0.000000 -0.000000 1.000000 8 56 52 0.100000
0.083263 0.161801 0.010330 0.000000 0.000000 -1.000000 8 56 52 0.100000
0.041554 0.279390 0.010330 0.000000 0.000000 -1.000000 8 56 52 0.100000
0.268763 -0.080033 -0.007289 0.000000 -0.000000 1.000000 8 56 52 0.100000
0.274244 -0.013791 0.010330 0.000000 -0.000000 1.000000 8 56 52 0.100000
0.145038 0.295822 0.010330 0.000000 -0.000000 1.000000 8 56 52 0.100000
-0.204517 -0.041172 -0.007276 0.000000 0.000000 -1.000000 8 56 52 0.100000
-0.401480 -0.267256 0.010344 0.000000 -0.000000 1.000000 8 56 52 0.100000
0.342627 0.478887 -0.026987 0.000000 1.000000 0.000000 19 22 27 1.000000
-0.442500 -0.271236 -0.000306 -1.000000 0.000000 0.000000 8 56 52 0.100000
0.017368 0.266514 0.010330 0.000000 -0.000000 1.000000 8 56 52 0.100000
-0.262814 -0.414404 -0.007276 0.000000 -0.000000 1.000000 8 56 52 0.100000
0.069098 -0.411128 0.010330 0.000000 0.000000 -1.000000 8 56 52 0.100000
-0.379263 -0.229822 -0.007276 0.000000 -0.000000 1.000000 8 56 52 0.100000
0.089117 -0.046510 0.010330 0.000000 -0.000000 1.000000 8 56 52 0.100000
0.376582 -0.320682 -0.007289 0.000000 -0.000000 1.000000 8 56 52 0.100000
-0.175365 0.326067 0.010344 0.000000 0.000000 -1.000000 8 56 52 0.100000
0.220107 -0.281662 0.010330 0.000000 0.000000 -1.000000 8 56 52 0.100000
0.023993 -0.361252 -0.007289 0.000000 0.000000 -1.000000 8 56 52 0.100000
0.315563 0.104625 -0.007289 0.000000 0.000000 -1.000000 8 56 52 0.100000
-0.008110 -0.443943 0.000404 0.000000 1.000000 0.000000 15 18 23 1.000000
-0.317523 -0.286867 0.010344 0.000000 0.000000 -1.000000 8 56 52 0.100000
0.010073 0.197514 0.010330 0.000000 -0.000000 1.000000 8 56 52 0.100000
0.380463 0.058724 0.010330 0.000000 0.000000 -1.000000 8 56 52 0.100000
0.125870 0.124618 -0.007289 0.000000 -0.000000 1.000000 8 56 52 0.100000
-0.352145 -0.446146 -0.028840 0.000000 1.000000 0.000000 16 19 24 1.000000
0.414393 0.483292 -0.025650 0.000000 -1.000000 -0.000000 26 29 34 1.000000
-0.189193 0.067888 0.010344 0.000000 0.000000 -1.000000 8 56 52 0.100000
0.075469 0.480959 0.012546 0.000000 0.000000 -1.000000 30 33 38 1.000000
-0.027355 -0.362359 0.010344 0.000000 0.000000 -1.000000 8 56 52 0.100000
0.400496 0.419101 -0.007289 0.000000 -0.000000 1.000000 8 56 52 0.100000
0.150904 -0.260479 0.010330 0.000000 -0.000000 1.000000 8 56 52 0.100000
0.326854 0.176423 -0.007289 0.000000 -0.000000 1.000000 8 56 52 0.100000
0.009586 0.084402 -0.007289 0.000000 -0.000000 1.000000 8 56 52 0.100000
-0.300945 -0.167343 0.010344 0.000000 0.000000 -1.000000 8 56 52 0.100000
-0.229841 -0.077000 0.010344 0.000000 -0.000000 1.000000 8 56 52 0.100000
0.020910 -0.441741 -0.026029 0.000000 1.000000 0.000000 22 23 29 1.000000
0.176801 -0.196041 -0.007289 0.000000 -0.000000 1.000000 8 56 52 0.100000
-0.175049 0.456460 0.010344 0.000000 -0.000000 1.000000 8 56 52 0.100000
0.390525 -0.417164 0.010330 0.000000 0.000000 -1.000000 8 56 52 0.100000
-0.110996 0.355865 0.010344 0.000000 0.000000 -1.000000 8 56 52 0.100000
0.012464 -0.032936 0.031112 0.777739 -0.000000 0.628587 24 27 32 1.000000
0.319295 -0.387326 0.010330 0.000000 0.000000 -1.000000 8 56 52 0.100000
-0.001868 -0.082007 0.001248 -1.000000 0.000000 0.000000 8 56 52 0.100000
-0.432857 -0.359023 0.010344 0.000000 -0.000000 1.000000 8 56 52 0.100000
0.264990 0.222800 -0.007289 0.000000 0.000000 -1.000000 8 56 52 0.100000
-0.100775 -0.404644 -0.007276 0.000000 -0.000000 1.000000 8 56 52 0.100000
0.200364 -0.272832 -0.007289 0.000000 -0.000000 1.000000 8 56 52 0.100000
0.315830 -0.168966 -0.007289 0.000000 0.000000 -1.000000 8 56 52 0.100000
-0.126756 0.192535 -0.007276 0.000000 0.000000 -1.000000 8 56 52 0.100000
-0.094029 0.018623 0.010344 0.000000 0.000000 -1.000000 8 56 52 0.100000
0.334924 -0.287330 -0.007289 0.000000 0.000000 -1.000000 8 56 52 0.100000
-0.010099 -0.050887 0.010344 0.000000 0.000000 -1.000000 8 56 52 0.100000
0.188840 0.362483 0.010330 0.000000 0.000000 -1.000000 8 56 52 0.100000
0.380606 0.284869 0.010330 0.000000 0.000000 -1.000000 8 56 52 0.100000
-0.311498 0.257823 0.010344 0.000000 0.000000 -1.000000 8 56 52 0.100000
0.247500 0.209374 -0.007289 0.000000 -0.000000 1.000000 8 56 52 0.100000
0.345283 -0.255741 0.010330 0.000000 -0.000000 1.000000 8 56 52 0.100000
-0.254942 -0.086824 -0.007276 0.000000 -0.000000 1.000000 8 56 52 0.100000
0.191599 -0.325654 -0.007289 0.000000 0.000000 -1.000000 8 56 52 0.100000
0.047022 -0.231657 -0.007289 0.000000 0.000000 -1.000000 8 56 52 0.100000
0.122541 0.171647 0.010330 0.000000 0.000000 -1.000000 8 56 52 0.100000
0.059183 0.418932 0.010330 0.000000 -0.000000 1.000000 8 56 52 0.100000
-0.079891 -0.393673 -0.007276 0.000000 0.000000 -1.000000 8 56 52 0.100000
0.427626 0.110138 0.010330 0.000000 0.000000 -1.000000 8 56 52 0.100000
0.235223 0.117432 0.010330 0.000000 -0.000000 1.000000 8 56 52 0.100000
-0.061594 0.271308 -0.007276 0.000000 -0.000000 1.000000 8 56 52 0.100000
0.173511 -0.132789 -0.007289 0.000000 0.000000 -1.000000 8 56 52 0.100000
0.001219 0.200462 -0.007289 0.000000 0.000000 -1.000000 8 56 52 0.100000
0.017117 -0.079062 -0.013105 0.284786 -0.958591 -0.000000 21 24 29 1.000000
0.019474 0.447569 -0.007289 0.000000 -0.000000 1.000000 8 56 52 0.100000
-0.392554 0.483292 0.000603 0.000000 1.000000 0.000000 19 22 27 1.000000
0.270715 -0.017453 -0.007289 0.000000 -0.000000 1.000000 8 56 52 0.100000
-0.040391 -0.187946 -0.007276 0.000000 0.000000 -1.000000 8 56 52 0.100000
-0.442500 0.173321 -0.006485 1.000000 0.000000 0.000000 8 56 52 0.100000
-0.027800 0.040086 0.010344 0.000000 0.000000 -1.000000 8 56 52 0.100000
-0.367467 0.370255 -0.007276 0.000000 -0.000000 1.000000 8 56 52 0.100000
-0.204528 0.427382 -0.007276 0.000000 0.000000 -1.000000 8 56 52 0.100000
-0.205085 0.033118 0.010344 0.000000 -0.000000 1.000000 8 56 52 0.100000
0.010722 -0.078572 0.033272 0.972008 -0.118480 0.202887 18 20 21 1.000000
0.087774 -0.334139 0.010330 0.000000 0.000000 -1.000000 8 56 52 0.100000
-0.064884 0.483292 0.010974 0.000000 -1.000000 -0.000000 18 21 26 1.000000
-0.170742 0.012210 -0.007276 0.000000 0.000000 -1.000000 8 56 52 0.100000
-0.410198 0.065699 -0.007276 0.000000 -0.000000 1.000000 8 56 52 0.100000
0.302646 -0.446146 -0.009416 0.000000 1.000000 0.000000 25 27 28 1.000000
0.266993 0.403015 0.010330 0.000000 0.000000 -1.000000 8 56 52 0.100000
0.241742 -0.441741 -0.024137 0.000000 1.000000 0.000000 18 21 26 1.000000
0.254824 0.480025 -0.007276 0.000000 0.000000 -1.000000 25 28 33 1.000000
0.313008 0.254913 0.010330 0.000000 -0.000000 1.000000 8 56 52 0.100000
0.032097 0.483292 -0.026464 0.000000 1.000000 0.000000 17 19 20 1.000000
0.227469 -0.324791 -0.007289 0.000000 -0.000000 1.000000 8 56 52 0.100000
0.326547 0.475563 -0.007289 0.000000 -0.000000 1.000000 8 56 52 0.100000
-0.420440 0.225180 -0.007276 0.000000 -0.000000 1.000000 8 56 52 0.100000
0.162043 0.483292 -0.025022 0.000000 -1.000000 -0.000000 21 24 29 1.000000
-0.141100 -0.264414 0.010344 0.000000 -0.000000 1.000000 8 56 52 0.100000
0.416519 0.282316 0.010330 0.000000 0.000000 -1.000000 8 56 52 0.100000
-0.362030 0.157639 0.010344 0.000000 -0.000000 1.000000 8 56 52 0.100000
-0.434030 0.404119 0.010344 0.000000 -0.000000 1.000000 8 56 52 0.100000
0.425951 -0.262497 -0.007289 0.000000 -0.000000 1.000000 8 56 52 0.100000
-0.394450 -0.286244 0.010344 0.000000 -0.000000 1.000000 8 56 52 0.100000
0.160384 -0.116311 -0.007289 0.000000 0.000000 -1.000000 8 56 52 0.100000
-0.420120 0.119413 0.010344 0.000000 0.000000 -1.000000 8 56 52 0.100000
0.384206 -0.370423 0.010330 0.000000 -0.000000 1.000000 8 56 52 0.100000
0.026690 0.340142 0.010330 0.000000 -0.000000 1.000000 8 56 52 0.100000
0.334995 0.024852 0.010330 0.000000 0.000000 -1.000000 8 56 52 0.100000
-0.273033 0.101811 0.010344 0.000000 -0.000000 1.000000 8 56 52 0.100000
-0.019377 0.341767 0.010344 0.000000 0.000000 -1.000000 8 56 52 0.100000
0.149149 0.264520 0.010330 0.000000 0.000000 -1.000000 8 56 52 0.100000
0.062381 -0.182368 -0.007289 0.000000 -0.000000 1.000000 8 56 52 0.100000
0.060273 -0.441741 -0.025696 0.000000 1.000000 0.000000 18 19 25 1.000000
-0.274373 0.208082 -0.007276 0.000000 0.000000 -1.000000 8 56 52 0.100000
-0.058953 0.384554 -0.007276 0.000000 -0.000000 1.000000 8 56 52 0.100000
0.420256 0.191971 -0.007289 0.000000 0.000000 -1.000000 8 56 52 0.100000
-0.001868 -0.179110 0.001007 1.000000 0.000000 0.000000 8 56 52 0.100000
-0.149675 0.011488 -0.007276 0.000000 0.000000 -1.000000 8 56 52 0.100000
0.080312 0.478887 -0.018666 0.000000 -1.000000 -0.000000 25 28 33 1.000000
-0.240032 0.481089 0.001617 0.000000 -1.000000 -0.000000 8 56 52 0.100000
-0.433157 0.019793 0.010344 0.000000 -0.000000 1.000000 8 56 52 0.100000
-0.337932 0.176964 0.010344 0.000000 -0.000000 1.000000 8 56 52 0.100000
-0.166337 -0.012613 -0.007276 0.000000 0.000000 -1.000000 8 56 52 0.100000
-0.280285 -0.040675 0.010344 0.000000 -0.000000 1.000000 8 56 52 0.100000
0.131661 -0.292169 0.010330 0.000000 0.000000 -1.000000 8 56 52 0.100000
-0.068407 0.086892 0.010344 0.000000 -0.000000 1.000000 8 56 52 0.100000
0.281375 0.363004 -0.007289 0.000000 0.000000 -1.000000 8 56 52 0.100000
0.010589 -0.013064 0.037664 -0.992610 -0.000000 0.121346 19 22 27 1.000000
-0.294563 -0.009164 0.010344 0.000000 0.000000 -1.000000 8 56 52 0.100000
-0.166974 0.259190 -0.007276 0.000000 -0.000000 1.000000 8 56 52 0.100000
-0.306504 -0.283529 -0.007276 0.000000 -0.000000 1.000000 8 56 52 0.100000
0.402686 0.327707 0.010330 0.000000 0.000000 -1.000000 8 56 52 0.100000
0.253749 -0.399331 -0.007289 0.000000 -0.000000 1.000000 8 56 52 0.100000
-0.414872 -0.050949 -0.007276 0.000000 -0.000000 1.000000 8 56 52 0.100000
-0.209014 0.059621 -0.007276 0.000000 0.000000 -1.000000 8 56 52 0.100000
-0.342908 0.068252 -0.007276 0.000000 0.000000 -1.000000 8 56 52 0.100000
-0.276707 0.256665 0.010344 0.000000 0.000000 -1.000000 8 56 52 0.100000
0.366523 -0.137088 0.010330 0.000000 -0.000000 1.000000 8 56 52 0.100000
-0.408782 -0.423221 0.010344 0.000000 0.000000 -1.000000 8 56 52 0.100000
-0.342487 -0.004476 0.010344 0.000000 -0.000000 1.000000 8 56 52 0.100000
-0.095714 -0.011042 -0.007276 0.000000 0.000000 -1.000000 8 56 52 0.100000
-0.330865 0.084695 -0.007276 0.000000 -0.000000 1.000000 8 56 52 0.100000
-0.038785 0.041794 -0.007276 0.000000 -0.000000 1.000000 8 56 52 0.100000
-0.130489 0.335637 0.010344 0.000000 0.000000 -1.000000 8 56 52 0.100000
-0.352225 0.274994 0.010344 0.000000 -0.000000 1.000000 8 56 52 0.100000
0.246564 0.031508 -0.007289 0.000000 -0.000000 1.000000 8 56 52 0.100000
-0.022113 -0.008331 0.028145 -0.158047 -0.000000 0.987432 18 21 26 1.000000
-0.317732 -0.274637 -0.007276 0.000000 0.000000 -1.000000 8 56 52 0.100000
-0.016136 0.132784 -0.007276 0.000000 -0.000000 1.000000 8 56 52 0.100000
-0.175884 -0.060782 0.010344 0.000000 -0.000000 1.000000 8 56 52 0.100000
0.175277 0.478887 -0.035032 0.000000 -1.000000 -0.000000 20 22 23 1.000000
0.387869 0.198367 0.010330 0.000000 -0.000000 1.000000 8 56 52 0.100000
-0.398628 0.009221 0.010344 0.000000 -0.000000 1.000000 8 56 52 0.100000
0.393797 0.427947 -0.007289 0.000000 0.000000 -1.000000 8 56 52 0.100000
-0.145643 0.400600 -0.007276 0.000000 -0.000000 1.000000 8 56 52 0.100000
-0.205403 0.155486 0.010344 0.000000 0.000000 -1.000000 8 56 52 0.100000
0.077529 -0.198213 -0.007289 0.000000 -0.000000 1.000000 8 56 52 0.100000
-0.288604 0.302193 -0.007276 0.000000 -0.000000 1.000000 8 56 52 0.100000
-0.225344 -0.446146 -0.027162 0.000000 1.000000 0.000000 16 20 20 1.000000
0.256733 0.254083 0.010330 0.000000 0.000000 -1.000000 8 56 52 0.100000
0.438623 0.092919 0.004763 1.000000 0.000000 0.000000 8 56 52 0.100000
0.771723 0.483292 0.011858 0.000000 1.000000 0.000000 23 26 31 1.000000
0.385314 0.402744 -0.007289 0.000000 0.000000 -1.000000 8 56 52 0.100000
0.220194 -0.418313 0.010330 0.000000 0.000000 -1.000000 8 56 52 0.100000
-0.230219 0.455553 -0.007276 0.000000 0.000000 -1.000000 8 56 52 0.100000
-0.272858 -0.410843 0.010344 0.000000 -0.000000 1.000000 8 56 52 0.100000
-0.263265 -0.212462 -0.007276 0.000000 0.000000 -1.000000 8 56 52 0.100000
0.144345 0.481455 0.012546 0.000000 -0.000000 1.000000 27 30 35 1.000000
0.423025 -0.034191 0.010330 0.000000 -0.000000 1.000000 8 56 52 0.100000
0.401506 0.224005 -0.007289 0.000000 -0.000000 1.000000 8 56 52 0.100000
0.598536 0.478887 0.011268 0.000000 1.000000 0.000000 20 23 28 1.000000
0.044969 -0.200833 -0.007289 0.000000 0.000000 -1.000000 8 56 52 0.100000
-0.418607 0.295305 0.010344 0.000000 0.000000 -1.000000 8 56 52 0.100000
0.438623 -0.379013 0.005006 -1.000000 0.000000 0.000000 8 56 52 0.100000
-0.424474 -0.120102 0.010344 0.000000 -0.000000 1.000000 8 56 52 0.100000
-0.179165 -0.432466 0.010344 0.000000 0.000000 -1.000000 8 56 52 0.100000
-0.008329 -0.027575 -0.007276 0.000000 0.000000 -1.000000 8 56 52 0.100000
0.009858 0.039639 0.010330 0.000000 -0.000000 1.000000 8 56 52 0.100000
-0.085870 0.418166 0.010344 0.000000 -0.000000 1.000000 8 56 52 0.100000
0.254629 -0.211888 -0.007289 0.000000 0.000000 -1.000000 8 56 52 0.100000
0.184680 -0.167362 0.010330 0.000000 0.000000 -1.000000 8 56 52 0.100000
0.069984 0.093370 -0.007289 0.000000 -0.000000 1.000000 8 56 52 0.100000
-0.282352 0.177706 -0.007276 0.000000 0.000000 -1.000000 8 56 52 0.100000
0.438623 -0.111093 0.001053 -1.000000 0.000000 0.000000 8 56 52 0.100000
0.309994 0.369570 0.010330 0.000000 0.000000 -1.000000 8 56 52 0.100000
0.109736 -0.270359 0.010330 0.000000 -0.000000 1.000000 8 56 52 0.100000
-0.366762 -0.095730 -0.007276 0.000000 0.000000 -1.000000 8 56 52 0.100000
-0.077892 0.123653 0.010344 0.000000 -0.000000 1.000000 8 56 52 0.100000
-0.363071 0.199745 0.010344 0.000000 -0.000000 1.000000 8 56 52 0.100000
0.235439 -0.349441 -0.007289 0.000000 -0.000000 1.000000 8 56 52 0.100000
-0.008746 -0.364556 -0.007276 0.000000 0.000000 -1.000000 8 56 52 0.100000
-0.102794 0.091335 0.010344 0.000000 -0.000000 1.000000 8 56 52 0.100000
-0.332625 0.158567 0.010344 0.000000 -0.000000 1.000000 8 56 52 0.100000
-0.284575 0.478887 -0.030871 0.000000 -1.000000 -0.000000 21 24 29 1.000000
-0.253885 0.461729 0.010344 0.000000 -0.000000 1.000000 8 56 52 0.100000
-0.002008 0.361533 0.000376 1.000000 0.000000 0.000000 8 56 52 0.100000
-0.237787 -0.241683 -0.007276 0.000000 -0.000000 1.000000 8 56 52 0.100000
0.349330 -0.229871 -0.007289 0.000000 -0.000000 1.000000 8 56 52 0.100000
0.063500 0.298981 -0.007289 0.000000 -0.000000 1.000000 8 56 52 0.100000
-0.171023 0.124113 -0.007276 0.000000 0.000000 -1.000000 8 56 52 0.100000
0.430198 -0.110569 -0.007289 0.000000 -0.000000 1.000000 8 56 52 0.100000
0.014360 -0.024640 -0.026744 0.602029 0.000000 -0.798474 12 15 20 1.000000
-0.031086 -0.057592 -0.029918 0.909583 0.000000 -0.415523 25 28 33 1.000000
-0.145758 0.201538 0.010344 0.000000 0.000000 -1.000000 8 56 52 0.100000
0.438623 0.073567 -0.007181 -1.000000 0.000000 0.000000 8 56 52 0.100000
-0.070114 -0.335505 0.010344 0.000000 -0.000000 1.000000 8 56 52 0.100000
0.334623 0.378824 -0.007289 0.000000 -0.000000 1.000000 8 56 52 0.100000
0.099957 -0.222883 -0.007289 0.000000 0.000000 -1.000000 8 56 52 0.100000
-0.351341 0.323488 0.010344 0.000000 -0.000000 1.000000 8 56 52 0.100000
0.018945 0.462713 0.010330 0.000000 -0.000000 1.000000 8 56 52 0.100000
0.201769 -0.446146 -0.027678 0.000000 1.000000 0.000000 31 34 39 1.000000
0.196567 -0.009431 -0.007289 0.000000 0.000000 -1.000000 8 56 52 0.100000
0.127270 -0.070584 -0.007289 0.000000 0.000000 -1.000000 8 56 52 0.100000
-0.179130 0.192113 -0.007276 0.000000 0.000000 -1.000000 8 56 52 0.100000
-0.237734 -0.285190 0.010344 0.000000 -0.000000 1.000000 8 56 52 0.100000
0.428039 0.286595 0.010330 0.000000 0.000000 -1.000000 8 56 52 0.100000
0.050264 -0.402524 -0.007289 0.000000 -0.000000 1.000000 8 56 52 0.100000
0.002802 0.113854 0.010330 0.000000 -0.000000 1.000000 8 56 52 0.100000
0.160623 0.129506 0.010330 0.000000 -0.000000 1.000000 8 56 52 0.100000
0.257308 -0.251738 -0.007289 0.000000 0.000000 -1.000000 8 56 52 0.100000
-0.384473 -0.195336 0.010344 0.000000 -0.000000 1.000000 8 56 52 0.100000
0.180213 -0.217887 -0.007289 0.000000 0.000000 -1.000000 8 56 52 0.100000
-0.215711 -0.215579 -0.007276 0.000000 -0.000000 1.000000 8 56 52 0.100000
0.303888 -0.363266 0.010330 0.000000 0.000000 -1.000000 8 56 52 0.100000
0.194446 -0.123920 -0.007289 0.000000 -0.000000 1.000000 8 56 52 0.100000
0.238946 -0.299256 -0.007289 0.000000 0.000000 -1.000000 8 56 52 0.100000
0.381077 -0.330608 0.010330 0.000000 -0.000000 1.000000 8 56 52 0.100000
0.027844 -0.058651 0.038314 0.980732 -0.000000 0.195356 20 23 28 1.000000
-0.432023 0.038734 -0.007276 0.000000 0.000000 -1.000000 8 56 52 0.100000
-0.355568 -0.256433 -0.007276 0.000000 0.000000 -1.000000 8 56 52 0.100000
-0.077111 -0.331082 -0.007276 0.000000 0.000000 -1.000000 8 56 52 0.100000
-0.433583 0.134919 0.010344 0.000000 0.000000 -1.000000 8 56 52 0.100000
0.174432 -0.401417 0.010330 0.000000 0.000000 -1.000000 8 56 52 0.100000
0.018985 0.435726 0.010330 0.000000 -0.000000 1.000000 8 56 52 0.100000
0.011104 -0.035968 -0.035962 0.966993 -0.000000 0.254803 21 24 29 1.000000
-0.416571 -0.026159 0.010344 0.000000 -0.000000 1.000000 8 56 52 0.100000
-0.051611 0.322409 -0.007276 0.000000 0.000000 -1.000000 8 56 52 0.100000
-0.183238 -0.210727 -0.007276 0.000000 0.000000 -1.000000 8 56 52 0.100000
-0.303736 0.216441 0.010344 0.000000 -0.000000 1.000000 8 56 52 0.100000
0.377717 0.132669 0.010330 0.000000 -0.000000 1.000000 8 56 52 0.100000
0.181208 -0.308512 -0.007289 0.000000 -0.000000 1.000000 8 56 52 0.100000
0.167867 0.016583 0.010330 0.000000 0.000000 -1.000000 8 56 52 0.100000
-0.304052 -0.061932 0.010344 0.000000 -0.000000 1.000000 8 56 52 0.100000
0.703089 -0.441987 -0.009491 0.000000 -0.000000 1.000000 21 24 29 1.000000
-0.199712 -0.064828 -0.007276 0.000000 -0.000000 1.000000 8 56 52 0.100000
-0.173458 -0.249881 0.010344 0.000000 -0.000000 1.000000 8 56 52 0.100000
-0.367176 -0.056309 -0.007276 0.000000 0.000000 -1.000000 8 56 52 0.100000
0.372612 0.019378 0.010330 0.000000 -0.000000 1.000000 8 56 52 0.100000
0.036594 -0.305866 -0.007289 0.000000 0.000000 -1.000000 8 56 52 0.100000
-0.197148 0.335182 -0.007276 0.000000 0.000000 -1.000000 8 56 52 0.100000
-0.432659 -0.036031 -0.007276 0.000000 -0.000000 1.000000 8 56 52 0.100000
-0.327714 0.473238 0.010344 0.000000 0.000000 -1.000000 8 56 52 0.100000
-0.431085 -0.173088 0.010344 0.000000 -0.000000 1.000000 8 56 52 0.100000
-0.285909 -0.255680 0.010344 0.000000 0.000000 -1.000000 8 56 52 0.100000
0.381823 -0.433286 -0.007289 0.000000 -0.000000 1.000000 8 56 52 0.100000
-0.165513 0.478887 -0.012826 0.000000 1.000000 0.000000 17 19 20 1.000000
0.043693 -0.364118 0.010330 0.000000 0.000000 -1.000000 8 56 52 0.100000
-0.095969 0.178161 -0.007276 0.000000 -0.000000 1.000000 8 56 52 0.100000
0.834284 0.481089 -0.001229 0.000000 1.000000 0.000000 22 23 29 1.000000
0.091861 0.372057 -0.007289 0.000000 -0.000000 1.000000 8 56 52 0.100000
0.174914 -0.239052 0.010330 0.000000 0.000000 -1.000000 8 56 52 0.100000
-0.846665 -0.443943 0.002609 0.000000 1.000000 0.000000 13 14 20 1.000000
-0.216428 -0.286924 0.010344 0.000000 -0.000000 1.000000 8 56 52 0.100000
-0.057505 -0.338973 0.010344 0.000000 -0.000000 1.000000 8 56 52 0.100000
0.127118 0.429073 -0.007289 0.000000 -0.000000 1.000000 8 56 52 0.100000
-0.311599 0.414675 0.010344 0.000000 0.000000 -1.000000 8 56 52 0.100000
0.023242 -0.139353 -0.007289 0.000000 -0.000000 1.000000 8 56 52 0.100000
-0.209552 -0.145320 0.010344 0.000000 0.000000 -1.000000 8 56 52 0.100000
0.230528 0.110874 -0.007289 0.000000 0.000000 -1.000000 8 56 52 0.100000
0.084465 -0.184567 0.010330 0.000000 0.000000 -1.000000 8 56 52 0.100000
0.039657 -0.189392 0.010330 0.000000 0.000000 -1.000000 8 56 52 0.100000
-0.033377 -0.084313 -0.007276 0.000000 0.000000 -1.000000 8 56 52 0.100000
-0.003031 0.428420 0.010344 0.000000 -0.000000 1.000000 8 56 52 0.100000
-0.208579 -0.186565 0.010344 0.000000 -0.000000 1.000000 8 56 52 0.100000
-0.306127 -0.311991 0.010344 0.000000 -0.000000 1.000000 8 56 52 0.100000
-0.302913 0.146333 0.010344 0.000000 0.000000 -1.000000 8 56 52 0.100000
0.307266 0.467903 0.010330 0.000000 0.000000 -1.000000 8 56 52 0.100000
0.067883 0.478867 -0.007289 0.000000 -0.000000 1.000000 8 56 52 0.100000
0.014793 0.358450 0.010330 0.000000 -0.000000 1.000000 8 56 52 0.100000
0.406715 -0.172514 -0.007289 0.000000 -0.000000 1.000000 8 56 52 0.100000
0.027055 -0.180859 -0.007289 0.000000 0.000000 -1.000000 8 56 52 0.100000
0.437121 -0.443943 -0.000255 0.000000 -1.000000 -0.000000 20 23 28 1.000000
0.077436 0.210991 -0.007289 0.000000 -0.000000 1.000000 8 56 52 0.100000
0.015044 0.299662 0.010330 0.000000 0.000000 -1.000000 8 56 52 0.100000
-0.442500 0.089239 0.006521 -1.000000 0.000000 0.000000 8 56 52 0.100000
-0.287226 0.147413 -0.007276 0.000000 0.000000 -1.000000 8 56 52 0.100000
-0.390274 -0.181448 -0.007276 0.000000 0.000000 -1.000000 8 56 52 0.100000
0.428607 0.427609 -0.007289 0.000000 -0.000000 1.000000 8 56 52 0.100000
0.205344 -0.065053 -0.007289 0.000000 -0.000000 1.000000 8 56 52 0.100000
-0.117145 0.449781 -0.007276 0.000000 0.000000 -1.000000 8 56 52 0.100000
0.064391 -0.046976 -0.007289 0.000000 -0.000000 1.000000 8 56 52 0.100000
-0.336428 -0.074623 0.010344 0.000000 -0.000000 1.000000 8 56 52 0.100000
-0.106299 0.004703 0.010344 0.000000 -0.000000 1.000000 8 56 52 0.100000
0.066855 -0.132291 -0.007289 0.000000 0.000000 -1.000000 8 56 52 0.100000
0.011743 -0.446146 -0.028755 0.000000 -1.000000 -0.000000 22 25 30 1.000000
-0.138832 -0.230777 -0.007276 0.000000 -0.000000 1.000000 8 56 52 0.100000
0.300016 -0.348053 -0.007289 0.000000 -0.000000 1.000000 8 56 52 0.100000
-0.014937 -0.068118 0.034853 -0.975734 -0.000000 0.218960 23 26 31 1.000000
-0.360194 0.067445 -0.007276 0.000000 -0.000000 1.000000 8 56 52 0.100000
0.386594 -0.042890 -0.007289 0.000000 -0.000000 1.000000 8 56 52 0.100000
-0.395168 0.071428 -0.007276 0.000000 0.000000 -1.000000 8 56 52 0.100000
-0.030596 0.262972 0.010344 0.000000 0.000000 -1.000000 8 56 52 0.100000
0.013533 -0.076187 -0.027041 0.699933 -0.318321 -0.639347 12 15 20 1.000000
0.203358 -0.327545 0.010330 0.000000 0.000000 -1.000000 8 56 52 0.100000
-0.393173 -0.418874 -0.007276 0.000000 0.000000 -1.000000 8 56 52 0.100000
-0.254460 -0.224660 0.010344 0.000000 -0.000000 1.000000 8 56 52 0.100000
0.062005 -0.197801 -0.007289 0.000000 -0.000000 1.000000 8 56 52 0.100000
0.168159 -0.176855 0.010330 0.000000 0.000000 -1.000000 8 56 52 0.100000
0.027052 -0.110589 -0.007289 0.000000 -0.000000 1.000000 8 56 52 0.100000
-0.295722 -0.210611 -0.007276 0.000000 0.000000 -1.000000 8 56 52 0.100000
-0.263997 0.255961 -0.007276 0.000000 -0.000000 1.000000 8 56 52 0.100000
0.377246 0.366747 -0.007289 0.000000 -0.000000 1.000000 8 56 52 0.100000
-0.028317 0.240974 0.010344 0.000000 0.000000 -1.000000 8 56 52 0.100000
-0.181154 -0.304697 0.010344 0.000000 0.000000 -1.000000 8 56 52 0.100000
0.011024 -0.441741 -0.015997 0.000000 -1.000000 -0.000000 18 21 26 1.000000
-0.341346 0.167654 -0.007276 0.000000 0.000000 -1.000000 8 56 52 0.100000
0.146584 0.096922 0.010330 0.000000 0.000000 -1.000000 8 56 52 0.100000
-0.369008 0.175975 -0.007276 0.000000 -0.000000 1.000000 8 56 52 0.100000
-0.114365 0.483292 -0.014572 0.000000 1.000000 0.000000 34 37 42 1.000000
0.418793 0.483292 -0.014014 0.000000 -1.000000 -0.000000 28 31 36 1.000000
-0.438632 0.154205 0.010344 0.000000 0.000000 -1.000000 8 56 52 0.100000
0.297469 0.113959 -0.007289 0.000000 -0.000000 1.000000 8 56 52 0.100000
0.286703 0.185667 0.010330 0.000000 0.000000 -1.000000 8 56 52 0.100000
0.598081 0.483292 -0.007942 0.000000 1.000000 0.000000 24 27 32 1.000000
-0.333826 -0.328359 -0.007276 0.000000 -0.000000 1.000000 8 56 52 0.100000
0.114831 0.455450 0.010330 0.000000 0.000000 -1.000000 8 56 52 0.100000
0.360520 0.238091 -0.007289 0.000000 -0.000000 1.000000 8 56 52 0.100000
0.353000 -0.267200 0.010330 0.000000 0.000000 -1.000000 8 56 52 0.100000
-0.205060 -0.293499 -0.007276 0.000000 -0.000000 1.000000 8 56 52 0.100000
0.296132 -0.425982 -0.007289 0.000000 -0.000000 1.000000 8 56 52 0.100000
-0.019540 0.046563 -0.034932 0.412197 0.658959 -0.629180 9 12 17 1.000000
0.094768 0.455338 0.010330 0.000000 0.000000 -1.000000 8 56 52 0.100000
0.020940 -0.423244 -0.007289 0.000000 0.000000 -1.000000 8 56 52 0.100000
0.324263 0.080290 -0.007289 0.000000 -0.000000 1.000000 8 56 52 0.100000
0.012054 0.396040 -0.007289 0.000000 0.000000 -1.000000 8 56 52 0.100000
-0.261825 -0.174932 -0.007276 0.000000 -0.000000 1.000000 8 56 52 0.100000
-0.761059 -0.443943 0.002729 0.000000 1.000000 0.000000 24 27 32 1.000000
-0.253503 -0.135984 0.010344 0.000000 0.000000 -1.000000 8 56 52 0.100000
-0.362133 -0.146622 -0.007276 0.000000 0.000000 -1.000000 8 56 52 0.100000
0.124750 -0.131377 0.010330 0.000000 0.000000 -1.000000 8 56 52 0.100000
0.236079 -0.390540 0.010330 0.000000 0.000000 -1.000000 8 56 52 0.100000
-0.001868 -0.035838 0.002111 1.000000 0.000000 0.000000 8 56 52 0.100000
0.093502 0.468113 0.010330 0.000000 -0.000000 1.000000 8 56 52 0.100000
0.157405 -0.080637 0.010330 0.000000 0.000000 -1.000000 8 56 52 0.100000
-0.053558 0.146255 -0.007276 0.000000 -0.000000 1.000000 8 56 52 0.100000
0.238051 0.097558 -0.007289 0.000000 0.000000 -1.000000 8 56 52 0.100000
-0.263142 -0.432709 0.010344 0.000000 -0.000000 1.000000 8 56 52 0.100000
0.332567 -0.090754 -0.007289 0.000000 -0.000000 1.000000 8 56 52 0.100000
0.432878 0.014518 0.010330 0.000000 -0.000000 1.000000 8 56 52 0.100000
0.001569 0.122678 -0.007289 0.000000 0.000000 -1.000000 8 56 52 0.100000
0.064959 0.415036 -0.007289 0.000000 -0.000000 1.000000 8 56 52 0.100000
0.213269 0.006699 -0.007289 0.000000 -0.000000 1.000000 8 56 52 0.100000
0.417495 -0.114851 0.010330 0.000000 -0.000000 1.000000 8 56 52 0.100000
0.412984 -0.029919 -0.007289 0.000000 0.000000 -1.000000 8 56 52 0.100000
0.139858 -0.255692 -0.007289 0.000000 0.000000 -1.000000 8 56 52 0.100000
0.392805 0.008650 -0.007289 0.000000 -0.000000 1.000000 8 56 52 0.100000
0.025472 0.397346 0.010330 0.000000 0.000000 -1.000000 8 56 52 0.100000
-0.141849 0.279447 0.010344 0.000000 -0.000000 1.000000 8 56 52 0.100000
0.158967 0.271015 -0.007289 0.000000 0.000000 -1.000000 8 56 52 0.100000
-0.106004 0.046059 -0.007276 0.000000 0.000000 -1.000000 8 56 52 0.100000
0.057597 0.191144 0.010330 0.000000 0.000000 -1.000000 8 56 52 0.100000
0.278730 0.483292 -0.023681 0.000000 1.000000 0.000000 17 19 20 1.000000
0.148057 0.452792 0.010330 0.000000 0.000000 -1.000000 8 56 52 0.100000
-0.267266 0.237522 -0.007276 0.000000 -0.000000 1.000000 8 56 52 0.100000
0.007567 -0.227945 -0.007289 0.000000 0.000000 -1.000000 8 56 52 0.100000
0.134309 0.374384 0.010330 0.000000 0.000000 -1.000000 8 56 52 0.100000
-0.210253 0.100625 -0.007276 0.000000 -0.000000 1.000000 8 56 52 0.100000
0.226079 -0.216460 0.010330 0.000000 -0.000000 1.000000 8 56 52 0.100000
-0.384878 -0.355389 0.010344 0.000000 0.000000 -1.000000 8 56 52 0.100000
-0.434430 0.448433 0.010344 0.000000 0.000000 -1.000000 8 56 52 0.100000
0.065659 0.132353 -0.007289 0.000000 -0.000000 1.000000 8 56 52 0.100000
0.239618 -0.074658 0.010330 0.000000 0.000000 -1.000000 8 56 52 0.100000
-0.125669 -0.324701 -0.007276 0.000000 -0.000000 1.000000 8 56 52 0.100000
-0.246949 -0.446146 -0.008798 0.000000 1.000000 0.000000 11 13 14 1.000000
-0.246408 0.026285 -0.007276 0.000000 -0.000000 1.000000 8 56 52 0.100000
-0.428507 -0.175455 -0.007276 0.000000 -0.000000 1.000000 8 56 52 0.100000
0.517069 -0.446146 0.001670 0.000000 1.000000 0.000000 22 24 25 1.000000
0.249595 0.137641 -0.007289 0.000000 0.000000 -1.000000 8 56 52 0.100000
-0.389147 0.268493 0.010344 0.000000 -0.000000 1.000000 8 56 52 0.100000
-0.196301 0.021626 0.010344 0.000000 -0.000000 1.000000 8 56 52 0.100000
-0.156985 0.081809 0.010344 0.000000 -0.000000 1.000000 8 56 52 0.100000
0.400837 -0.358975 0.010330 0.000000 -0.000000 1.000000 8 56 52 0.100000
0.162150 -0.089588 0.010330 0.000000 -0.000000 1.000000 8 56 52 0.100000
0.015509 -0.145062 0.010330 0.000000 0.000000 -1.000000 8 56 52 0.100000
-0.397771 0.270810 -0.007276 0.000000 0.000000 -1.000000 8 56 52 0.100000
-0.364444 0.330009 -0.007276 0.000000 -0.000000 1.000000 8 56 52 0.100000
0.396212 0.309004 -0.007289 0.000000 0.000000 -1.000000 8 56 52 0.100000
