ply
format ascii 1.0
element vertex 1299
property float x
property float y
property float z
property uchar red
property uchar green
property uchar blue
end_header
0.336023 -0.846595 -0.123369 255 0 0
0.469870 0.730657 -0.257127 127 127 0
0.410820 -0.571681 0.002529 255 0 0
0.043997 0.511351 0.442301 255 0 0
0.463310 -0.181110 -0.166909 255 0 0
0.274847 -0.655493 -0.340038 255 0 0
0.492360 0.537941 0.089783 255 0 0
-0.273275 -0.504481 -0.307310 255 0 0
-0.135888 0.638467 -0.082439 127 127 0
-0.130949 0.692842 -0.172916 127 127 0
0.402962 -0.624686 -0.104710 255 0 0
0.420765 -0.490314 -0.246031 255 0 0
-0.432694 0.058559 0.153884 255 0 0
0.238896 0.669197 -0.193501 127 127 0
0.287152 -0.506835 0.285012 255 0 0
-0.352702 0.669197 0.005307 127 127 0
-0.276010 -0.009713 0.303388 255 0 0
0.363625 -0.102110 0.293994 255 0 0
0.424257 0.352580 0.272150 255 0 0
0.398977 -0.624345 0.009383 255 0 0
0.065393 0.639776 0.462487 255 0 0
-0.345053 -0.587395 -0.088765 255 0 0
0.244935 0.638467 -0.064345 127 127 0
-0.454584 -0.069355 0.060001 255 0 0
0.198596 -0.210135 -0.506798 255 0 0
-0.192192 -0.566843 0.265797 255 0 0
-0.373609 0.420343 -0.348051 255 0 0
-0.089846 0.217933 0.865814 0 255 0
0.373094 0.034243 0.302497 255 0 0
-0.187190 -0.443054 -0.416743 255 0 0
0.145983 0.698251 -0.266551 127 127 0
0.199691 0.420082 -0.522871 255 0 0
0.301953 0.507084 -0.482800 255 0 0
0.420967 -0.426291 0.067392 255 0 0
-0.178416 -0.114806 -0.472260 255 0 0
-0.169722 -0.687668 0.251817 255 0 0
-0.208476 -0.668351 -0.390303 255 0 0
0.423965 -0.282154 0.119936 255 0 0
0.546613 0.450220 -0.067101 255 0 0
-0.047866 0.638467 0.307761 127 127 0
0.120712 -0.303875 0.366678 255 0 0
-0.249737 0.638467 0.300940 127 127 0
-0.411682 0.233106 0.159065 255 0 0
-0.006163 0.669197 0.015478 127 127 0
0.298938 0.669197 0.141245 127 127 0
0.386587 0.591926 0.320124 255 0 0
0.252940 -0.444080 -0.406084 255 0 0
-0.260148 0.428847 0.376255 255 0 0
0.192451 0.669197 0.013719 127 127 0
-0.376092 -0.507448 -0.018538 255 0 0
-0.039891 -0.533789 -0.453968 255 0 0
0.434969 -0.433802 0.004852 255 0 0
-0.303531 -0.583820 0.113272 255 0 0
0.472898 0.348626 0.203350 255 0 0
-0.170928 0.364451 -0.491839 255 0 0
0.490779 0.210005 -0.038044 255 0 0
0.081407 0.669197 0.048800 127 127 0
-0.213669 -0.310453 -0.424110 255 0 0
-0.412385 -0.030466 0.113050 255 0 0
-0.117757 -0.607951 -0.417829 255 0 0
0.479932 -0.363790 -0.014220 255 0 0
0.409598 -0.467097 0.087813 255 0 0
-0.282672 -0.569880 0.187007 255 0 0
-0.509729 0.730657 -0.157168 127 127 0
-0.024095 0.433089 0.458808 255 0 0
-0.338990 0.638467 0.078539 127 127 0
0.293258 0.638467 -0.056239 127 127 0
-0.238277 -0.349607 0.281549 255 0 0
-0.271652 0.540131 0.334223 255 0 0
-0.404463 -0.322958 -0.114760 255 0 0
0.129491 0.669197 -0.106918 127 127 0
-0.122898 0.458438 0.407633 255 0 0
-0.171358 0.669197 -0.029285 127 127 0
0.322846 0.170617 0.317766 255 0 0
0.328292 0.160159 -0.434549 255 0 0
0.072502 0.072147 0.412194 255 0 0
-0.267200 -0.633881 -0.349619 255 0 0
0.070036 0.511825 0.459295 255 0 0
-0.002809 0.538850 0.412727 255 0 0
-0.327527 -0.689070 -0.178776 255 0 0
0.165580 0.328709 0.407328 255 0 0
0.077202 0.638467 -0.295261 127 127 0
-0.245007 0.484611 0.715697 0 255 0
-0.416546 -0.453454 -0.016382 255 0 0
-0.228172 0.669197 0.174305 127 127 0
0.282264 -0.685193 -0.050067 255 0 0
0.367820 0.730657 0.323324 127 127 0
-0.012987 0.669197 -0.118669 127 127 0
0.216312 -0.536689 0.291023 255 0 0
-0.393224 -0.301384 0.072315 255 0 0
-0.260820 -0.129688 0.786683 0 255 0
0.420560 -0.559001 -0.048807 255 0 0
-0.046481 0.669197 -0.145670 127 127 0
0.414644 0.471681 0.243571 255 0 0
-0.256717 -0.538798 -0.341614 255 0 0
0.440961 0.728534 0.254211 127 127 0
0.049734 0.007211 -0.561642 255 0 0
-0.194826 -0.248235 0.323563 255 0 0
0.499398 0.063386 -0.118129 255 0 0
-0.449783 0.730657 -0.071757 127 127 0
0.202739 0.638467 0.287090 127 127 0
-0.102630 0.521340 0.436381 0 255 0
0.116309 -0.846595 -0.395791 255 0 0
-0.257342 -0.114133 0.339238 255 0 0
-0.417118 0.459114 0.154107 255 0 0
0.266111 0.638467 0.263973 127 127 0
-0.395080 0.462178 -0.371389 255 0 0
-0.260265 -0.021503 0.783369 0 255 0
0.533272 0.155558 -0.118775 255 0 0
0.372193 0.669197 -0.174013 127 127 0
-0.237660 0.462532 0.846994 0 255 0
-0.137965 -0.846595 -0.068498 255 0 0
0.007125 0.669197 -0.374797 127 127 0
0.417650 -0.117012 0.181260 255 0 0
-0.084155 0.111581 0.387471 255 0 0
0.364402 0.342152 -0.389301 255 0 0
0.491018 -0.178800 0.062583 255 0 0
0.427736 -0.081945 0.222981 255 0 0
-0.106529 0.532141 0.474417 0 255 0
-0.338303 0.174060 -0.378659 255 0 0
-0.068314 -0.179108 -0.534422 255 0 0
-0.462955 0.315501 0.000886 255 0 0
-0.368069 -0.662589 0.036398 255 0 0
0.310166 0.669197 -0.280124 127 127 0
0.201414 -0.291733 -0.460764 255 0 0
0.499898 -0.182224 -0.142127 255 0 0
0.429945 -0.385148 -0.084205 255 0 0
0.168320 0.690666 -0.150121 127 127 0
0.367385 -0.263106 0.216292 255 0 0
0.198455 -0.381975 0.359470 255 0 0
0.126015 0.178189 -0.564042 255 0 0
-0.357802 -0.558258 -0.166076 255 0 0
0.338773 0.354353 -0.436527 255 0 0
-0.127454 -0.005952 -0.537334 255 0 0
0.121754 -0.513031 0.328973 255 0 0
-0.453746 0.365854 -0.167191 255 0 0
-0.156286 -0.184526 0.696113 0 255 0
0.364481 0.669197 -0.076446 127 127 0
-0.198307 0.730657 -0.483531 127 127 0
-0.240396 0.669197 0.032449 127 127 0
-0.123090 -0.359758 -0.461861 255 0 0
0.065242 -0.516321 0.369782 255 0 0
-0.422711 0.346305 0.204815 255 0 0
-0.098890 -0.090125 0.847166 0 255 0
0.523094 0.676201 -0.210251 255 0 0
-0.113917 -0.413671 -0.488931 255 0 0
0.543554 0.332209 -0.091969 255 0 0
0.361183 -0.724666 -0.281601 255 0 0
-0.018937 0.002010 -0.560017 255 0 0
-0.242030 0.006064 -0.485276 255 0 0
0.425280 -0.035971 0.178231 255 0 0
0.507520 0.076747 0.092280 255 0 0
-0.450136 0.456777 0.065403 255 0 0
0.431216 0.107560 -0.278913 255 0 0
-0.137238 0.306414 -0.553998 255 0 0
-0.297684 -0.197172 0.295056 255 0 0
-0.394773 -0.400794 -0.025595 255 0 0
0.494970 0.693781 -0.261277 127 127 0
-0.358488 0.669197 0.066642 127 127 0
-0.290147 0.365662 0.318958 255 0 0
0.393459 0.288223 -0.385094 255 0 0
0.249544 0.701215 0.073024 127 127 0
-0.327798 -0.121547 -0.353225 255 0 0
0.215208 -0.239814 -0.465516 255 0 0
0.031554 0.691368 0.115257 127 127 0
-0.463402 -0.056204 0.024648 255 0 0
-0.009857 -0.333481 -0.493555 255 0 0
0.238268 -0.168979 0.372896 255 0 0
-0.137989 0.492984 -0.529109 255 0 0
0.331840 -0.473848 0.209027 255 0 0
0.084185 -0.444801 0.348374 255 0 0
-0.322178 0.320653 0.287960 255 0 0
-0.097298 0.638467 -0.436062 127 127 0
-0.027929 -0.639319 -0.466853 255 0 0
-0.197915 0.423575 -0.532839 255 0 0
-0.006390 -0.242960 -0.534352 255 0 0
0.283920 -0.846595 -0.089106 255 0 0
0.406783 -0.491829 0.008246 255 0 0
-0.356801 -0.073695 -0.323774 255 0 0
-0.178689 -0.142182 0.346795 255 0 0
-0.121281 0.730657 -0.519095 127 127 0
0.080375 -0.400990 -0.509419 255 0 0
0.097712 -0.008787 0.433520 255 0 0
0.303082 0.631378 0.323638 255 0 0
-0.248938 0.262030 0.344839 255 0 0
0.020546 0.638467 -0.344178 127 127 0
-0.131020 -0.614780 0.338899 0 255 0
0.402149 0.570459 0.226957 255 0 0
0.136912 0.346442 -0.537506 255 0 0
0.374427 -0.707268 -0.257409 255 0 0
0.471472 -0.399909 -0.130782 255 0 0
0.244521 0.303916 -0.496888 255 0 0
0.424404 0.394962 -0.395301 255 0 0
-0.173506 0.705984 -0.276922 127 127 0
0.438330 0.242781 -0.370327 255 0 0
0.222911 -0.396310 0.310986 255 0 0
-0.310368 -0.376056 -0.322441 255 0 0
0.131100 0.638467 -0.041148 127 127 0
-0.225419 -0.846595 -0.061379 255 0 0
-0.301783 0.421480 -0.427896 255 0 0
-0.126647 0.027864 0.389357 255 0 0
-0.376688 0.242144 -0.303667 255 0 0
0.095276 -0.485557 0.321980 255 0 0
0.497660 0.112962 -0.249672 255 0 0
-0.210124 -0.629614 0.245794 255 0 0
0.210574 0.696724 0.068095 127 127 0
0.129817 0.638467 -0.328143 127 127 0
0.008358 -0.677240 -0.386141 255 0 0
0.067399 0.493206 0.428647 255 0 0
0.469794 0.691308 0.137411 255 0 0
-0.138726 -0.471828 0.428085 0 255 0
0.546021 0.492701 -0.087792 255 0 0
-0.086524 0.163217 0.851077 0 255 0
0.474618 0.051664 -0.220148 255 0 0
-0.015235 0.691272 0.109828 127 127 0
-0.048597 0.570135 -0.580867 255 0 0
-0.460189 0.693781 0.086847 127 127 0
-0.046454 0.033299 -0.510963 255 0 0
0.483161 0.115346 -0.110526 255 0 0
0.373707 0.367745 -0.404898 255 0 0
-0.356877 -0.619987 -0.077580 255 0 0
0.087907 -0.554651 0.359952 255 0 0
0.311835 -0.129915 0.294377 255 0 0
0.153429 -0.183306 -0.525478 255 0 0
0.481768 -0.267783 0.053349 255 0 0
0.169038 0.024811 0.388340 255 0 0
-0.368514 -0.535953 0.110904 255 0 0
-0.342245 0.683827 0.095952 127 127 0
-0.399749 -0.071665 -0.254018 255 0 0
0.056030 -0.452996 0.353168 255 0 0
-0.098906 -0.268019 -0.486587 255 0 0
0.245276 0.644031 -0.486332 127 127 0
-0.364113 -0.581131 -0.036265 255 0 0
0.288383 0.638467 -0.206858 127 127 0
-0.162466 -0.238307 0.664504 0 255 0
0.508436 0.730657 0.060715 127 127 0
-0.017935 -0.558334 -0.455034 255 0 0
0.497175 0.538434 -0.107981 255 0 0
0.176741 0.202133 -0.523257 255 0 0
0.487504 0.644203 0.063274 127 127 0
0.028851 0.744514 -0.062630 127 127 0
-0.131681 0.470828 0.870890 0 255 0
0.232231 -0.543162 -0.398766 255 0 0
0.448064 0.692901 -0.081701 127 127 0
0.510634 0.392667 0.023471 255 0 0
-0.449603 0.540131 0.133702 255 0 0
-0.490722 0.311406 -0.123175 255 0 0
-0.075177 -0.179098 0.411089 255 0 0
-0.279562 0.467143 -0.485226 255 0 0
0.068483 0.507798 -0.550563 255 0 0
-0.195104 0.389304 0.381035 255 0 0
0.367427 -0.339219 -0.369543 255 0 0
0.461840 0.696772 -0.302471 255 0 0
-0.148833 0.638467 0.357223 127 127 0
0.440999 0.146434 -0.301310 255 0 0
-0.177808 -0.544423 -0.437435 255 0 0
-0.255970 -0.643339 -0.284013 255 0 0
0.362886 0.317607 0.333161 255 0 0
-0.440755 0.638467 -0.072564 127 127 0
-0.189021 -0.480070 0.567117 0 255 0
-0.420880 -0.343905 0.055354 255 0 0
0.215276 0.325829 -0.544375 255 0 0
-0.390288 -0.609188 -0.079761 255 0 0
-0.438471 0.120393 -0.183479 255 0 0
0.187736 0.638467 -0.174874 127 127 0
0.032861 0.683910 -0.484827 127 127 0
-0.319728 -0.295316 -0.329496 255 0 0
0.224031 -0.685193 -0.071746 255 0 0
-0.466969 0.447893 -0.109594 255 0 0
-0.238699 -0.388326 0.274000 255 0 0
-0.135298 -0.438372 -0.477109 255 0 0
0.208254 -0.545243 0.324788 255 0 0
-0.320095 0.304628 -0.406864 255 0 0
-0.325071 -0.545273 -0.253576 255 0 0
0.436443 0.504446 -0.351694 255 0 0
0.020747 -0.846595 0.014465 255 0 0
-0.414739 0.082875 0.074542 255 0 0
0.245755 0.706810 0.139529 127 127 0
0.545888 0.402088 -0.062074 255 0 0
-0.117014 0.638467 -0.285666 127 127 0
0.184277 0.695552 -0.207803 127 127 0
0.305078 0.352117 -0.441561 255 0 0
0.277251 -0.685239 0.005002 255 0 0
0.163878 0.290220 -0.528409 255 0 0
-0.251133 0.638467 0.207437 127 127 0
-0.343717 -0.555763 -0.201333 255 0 0
0.068761 -0.340492 0.397998 255 0 0
0.314635 0.257496 0.308246 255 0 0
-0.463299 0.730369 0.125255 127 127 0
-0.439657 -0.274918 -0.137153 255 0 0
-0.125435 -0.153382 -0.522464 255 0 0
-0.325440 0.607685 0.331149 255 0 0
0.088566 -0.063690 -0.551618 255 0 0
-0.199709 -0.677401 -0.355750 255 0 0
-0.309521 -0.193952 -0.366964 255 0 0
-0.288027 0.427905 0.321989 255 0 0
0.457517 0.224652 -0.239445 255 0 0
0.474817 0.475513 0.136262 255 0 0
0.057167 0.356174 0.430636 255 0 0
-0.105355 -0.846595 0.019040 255 0 0
0.478773 -0.131609 -0.110012 255 0 0
-0.084557 -0.549245 -0.473336 255 0 0
0.347654 -0.425523 0.249245 255 0 0
0.485922 0.278014 -0.227259 255 0 0
-0.116924 0.021640 -0.543372 255 0 0
0.217697 -0.455770 0.337675 255 0 0
0.252242 -0.844461 0.241296 255 0 0
-0.409431 -0.011628 -0.237778 255 0 0
-0.193217 -0.654670 0.212314 255 0 0
0.284547 -0.846595 0.124966 255 0 0
-0.323661 -0.799157 0.140053 255 0 0
0.448337 -0.070891 0.133606 255 0 0
-0.152207 0.540131 0.399080 255 0 0
0.333844 -0.030016 0.329268 255 0 0
-0.201102 -0.624121 -0.374279 255 0 0
-0.385718 -0.464676 -0.066034 255 0 0
-0.371471 -0.690520 -0.069940 255 0 0
0.471005 -0.109578 -0.168586 255 0 0
-0.096635 0.242295 0.784288 0 255 0
0.112325 0.669197 -0.358078 127 127 0
-0.323071 0.473650 -0.408411 255 0 0
0.019996 -0.090442 0.431094 255 0 0
-0.090814 -0.101441 0.384287 255 0 0
-0.172058 0.312622 0.386222 255 0 0
-0.408123 -0.069657 0.046865 255 0 0
0.410992 -0.401507 0.054226 255 0 0
0.449032 0.119872 0.221579 255 0 0
-0.473575 0.059175 -0.146258 255 0 0
0.286171 0.638467 -0.333573 127 127 0
-0.221035 -0.389811 0.320432 255 0 0
-0.243960 -0.053183 0.824582 0 255 0
0.351384 0.638467 0.151263 127 127 0
-0.452061 0.136940 -0.118234 255 0 0
0.430945 -0.112748 -0.235045 255 0 0
-0.308049 0.242948 -0.456136 255 0 0
0.129215 -0.160173 0.362636 255 0 0
0.094015 -0.036857 0.403328 255 0 0
0.358435 -0.524959 0.164884 255 0 0
0.457167 0.337614 -0.289778 255 0 0
-0.290826 0.589917 0.293960 255 0 0
-0.232265 0.575414 0.730615 0 255 0
-0.237612 0.390002 -0.511427 255 0 0
-0.001688 0.720128 0.189597 127 127 0
-0.420557 0.541830 -0.227057 255 0 0
0.296883 0.245729 -0.463644 255 0 0
0.366876 -0.521551 0.202097 255 0 0
-0.438207 -0.015120 0.126057 255 0 0
0.362529 0.700193 -0.003053 127 127 0
-0.120084 0.236463 -0.556780 255 0 0
-0.343470 0.380652 -0.384907 255 0 0
-0.393902 0.247524 0.186346 255 0 0
0.185212 -0.213919 0.359673 255 0 0
0.105266 0.638467 -0.094375 127 127 0
-0.416426 0.545374 -0.337599 255 0 0
0.235877 0.252286 -0.498833 255 0 0
-0.416321 -0.106610 -0.018792 255 0 0
0.226055 0.385130 0.419538 255 0 0
-0.176585 0.638467 -0.331725 127 127 0
0.427835 -0.192748 0.200811 255 0 0
-0.127816 -0.501848 -0.438652 255 0 0
-0.007461 -0.404631 0.357952 255 0 0
0.175998 -0.689070 0.297936 255 0 0
-0.118144 -0.421929 0.506592 0 255 0
-0.228223 0.277114 0.390858 255 0 0
-0.361517 0.669197 -0.209505 127 127 0
-0.206011 -0.042141 0.324160 255 0 0
0.332946 -0.193251 0.270719 255 0 0
0.208906 0.669197 -0.412537 127 127 0
0.264176 0.638467 0.159944 127 127 0
-0.420130 -0.196648 0.020293 255 0 0
0.085913 -0.560523 -0.481098 255 0 0
0.348614 0.229317 0.277215 255 0 0
0.068023 -0.846206 -0.424440 255 0 0
-0.084578 0.383963 0.842450 0 255 0
0.206493 0.507467 0.428492 255 0 0
0.461960 0.269457 0.152812 255 0 0
0.109176 0.638467 0.144559 127 127 0
0.444607 0.481938 -0.371105 255 0 0
0.481965 0.039262 -0.272519 255 0 0
-0.483185 0.192388 -0.141487 255 0 0
-0.109425 0.638467 -0.471416 127 127 0
0.504201 -0.122544 -0.154560 255 0 0
-0.067422 0.212508 -0.536452 255 0 0
0.484284 -0.130277 -0.051609 255 0 0
0.270519 -0.577422 -0.368289 255 0 0
-0.010938 0.290904 0.425282 255 0 0
-0.474132 -0.015897 -0.039964 255 0 0
0.158929 0.505175 0.394068 255 0 0
0.321130 -0.445482 -0.349305 255 0 0
-0.201313 0.699545 -0.165720 127 127 0
-0.341253 -0.087561 0.225789 255 0 0
0.399959 0.083270 -0.354488 255 0 0
0.188762 -0.595072 0.292358 255 0 0
0.199284 -0.044400 -0.525889 255 0 0
-0.371188 -0.010829 0.157847 255 0 0
-0.292226 0.055838 -0.454387 255 0 0
-0.099142 0.669197 -0.435923 127 127 0
-0.299720 -0.426688 -0.322443 255 0 0
-0.197226 0.529373 0.586987 0 255 0
0.318315 0.669197 -0.332999 127 127 0
0.225478 -0.240486 0.338522 255 0 0
0.425707 -0.715117 -0.074313 255 0 0
0.070619 -0.160222 -0.543539 255 0 0
-0.127506 -0.572120 0.333050 255 0 0
-0.459290 0.155900 0.106278 255 0 0
-0.385572 0.400263 0.214169 255 0 0
-0.228542 0.669197 -0.272563 127 127 0
-0.000807 0.669197 -0.251442 127 127 0
-0.300649 0.558217 0.346382 255 0 0
-0.412395 -0.389044 0.061819 255 0 0
0.185008 -0.685193 -0.224467 255 0 0
0.030384 0.693781 0.445709 127 127 0
0.469652 0.285352 -0.267832 255 0 0
-0.013909 0.489757 0.529030 0 255 0
-0.259487 0.413504 0.779916 0 255 0
-0.009293 0.669197 -0.307168 127 127 0
-0.036787 -0.232086 -0.501570 255 0 0
0.392245 -0.172206 0.252651 255 0 0
-0.400953 -0.129368 -0.299545 255 0 0
-0.083665 -0.846595 -0.118012 255 0 0
-0.430236 0.514358 -0.196361 255 0 0
-0.443663 -0.063653 0.098904 255 0 0
-0.351454 -0.220195 0.233078 255 0 0
0.436629 0.062485 -0.303610 255 0 0
-0.305955 0.694328 0.088704 127 127 0
0.298413 -0.042002 -0.475556 255 0 0
0.160106 -0.399226 0.337691 255 0 0
-0.069433 -0.233509 0.775279 0 255 0
-0.120182 -0.662515 -0.372348 255 0 0
-0.389011 0.342978 -0.376475 255 0 0
-0.411240 0.540131 0.185189 255 0 0
0.433728 0.397961 -0.331721 255 0 0
0.052638 0.344649 -0.552481 255 0 0
0.295502 0.301931 0.345071 255 0 0
0.491180 -0.034979 -0.070198 255 0 0
0.074088 0.669197 -0.108652 127 127 0
0.535882 0.356984 0.035972 255 0 0
0.456948 0.158290 -0.279937 255 0 0
0.238998 0.669197 -0.280342 127 127 0
-0.424631 -0.363708 0.025845 255 0 0
0.438503 0.533306 0.203961 255 0 0
0.474721 0.318978 -0.320373 255 0 0
0.187636 0.693105 -0.541157 255 0 0
0.485825 0.344749 0.040299 255 0 0
-0.241852 -0.335346 0.316077 255 0 0
0.442719 0.495200 0.163816 255 0 0
-0.283164 -0.846357 -0.258759 255 0 0
-0.328882 -0.673657 0.131192 255 0 0
0.363086 0.638467 -0.233123 127 127 0
-0.438306 0.559700 0.044364 255 0 0
-0.164543 0.449282 -0.517855 255 0 0
0.312250 0.193852 -0.428412 255 0 0
-0.039830 0.693781 0.420356 127 127 0
-0.276914 0.654584 -0.427840 255 0 0
-0.218485 0.669197 0.085049 127 127 0
0.506323 0.324665 -0.160573 255 0 0
-0.130321 0.680190 -0.554402 255 0 0
0.035302 -0.846595 0.116088 255 0 0
-0.472740 0.209284 0.072207 255 0 0
-0.215416 -0.311772 0.603356 0 255 0
0.359909 -0.059879 -0.387037 255 0 0
0.364648 -0.112310 -0.374267 255 0 0
0.502093 0.210514 0.019978 255 0 0
-0.405606 0.383812 0.173892 255 0 0
0.296003 -0.846595 0.077071 255 0 0
-0.207651 0.709153 0.302709 127 127 0
0.275077 0.006296 -0.459066 255 0 0
0.109163 -0.198468 0.411528 255 0 0
0.099462 -0.322467 -0.490012 255 0 0
0.253999 0.143483 -0.483184 255 0 0
-0.056971 -0.262876 -0.497779 255 0 0
0.423973 -0.367472 -0.148423 255 0 0
0.190788 -0.163754 0.393868 255 0 0
-0.104117 -0.525595 -0.439347 255 0 0
-0.160185 -0.689070 0.283852 255 0 0
-0.040202 0.669197 0.271987 127 127 0
-0.035201 0.671625 -0.480662 127 127 0
0.428790 0.307044 0.181791 255 0 0
-0.062105 0.127524 -0.535915 255 0 0
-0.075697 -0.129539 0.803060 0 255 0
-0.300508 -0.333308 -0.349113 255 0 0
-0.085018 -0.282630 0.652536 0 255 0
0.323325 0.393554 0.332357 255 0 0
0.129837 -0.573222 0.318341 255 0 0
0.511707 -0.063217 -0.148234 255 0 0
0.544882 0.396866 -0.091650 255 0 0
-0.336933 -0.277429 0.188237 255 0 0
0.318193 0.311333 -0.451305 255 0 0
0.411451 0.669197 0.093652 127 127 0
0.387460 -0.549033 -0.218417 255 0 0
0.318311 0.625222 0.374936 255 0 0
0.454649 0.345877 -0.354009 255 0 0
-0.207082 0.706010 0.118872 127 127 0
0.057594 0.082551 -0.536110 255 0 0
0.122686 0.721465 -0.287913 127 127 0
0.256119 0.570403 -0.475645 255 0 0
0.488990 -0.082587 -0.042403 255 0 0
0.290664 0.320573 0.385316 255 0 0
0.489107 -0.073257 -0.097451 255 0 0
-0.091294 0.514177 0.399020 255 0 0
-0.214836 0.072466 -0.507118 255 0 0
-0.370706 0.514701 -0.402178 255 0 0
0.238934 0.711019 -0.437096 127 127 0
-0.185329 -0.295711 -0.447303 255 0 0
-0.049924 -0.436082 0.378981 255 0 0
-0.322458 -0.643438 -0.155353 255 0 0
-0.141364 -0.096370 0.401786 255 0 0
0.265376 -0.012271 0.321432 255 0 0
-0.351317 0.216447 0.291353 255 0 0
0.477094 0.178451 0.181165 255 0 0
-0.275930 0.365437 -0.486038 255 0 0
0.477098 -0.125713 0.023789 255 0 0
0.001527 0.157396 0.422593 255 0 0
0.432917 0.638467 0.127855 127 127 0
-0.300982 -0.138127 -0.385314 255 0 0
0.359367 -0.830628 0.156116 255 0 0
0.426917 -0.292387 -0.181488 255 0 0
0.342790 -0.250060 -0.411742 255 0 0
-0.237238 0.702571 0.007283 127 127 0
0.546014 0.421779 -0.040107 255 0 0
0.224885 -0.610204 -0.392326 255 0 0
-0.059526 0.414215 0.479724 0 255 0
0.368711 -0.248722 0.189827 255 0 0
-0.259178 0.715709 -0.499423 127 127 0
-0.463020 0.258977 -0.101210 255 0 0
0.427563 0.144624 0.254081 255 0 0
-0.224454 0.358422 -0.482856 255 0 0
0.500342 0.162019 -0.250988 255 0 0
-0.004109 0.669197 0.236811 127 127 0
0.092413 -0.077186 -0.521624 255 0 0
-0.162018 0.540131 -0.530753 255 0 0
-0.398204 -0.546358 -0.121187 255 0 0
-0.272696 -0.289052 -0.381760 255 0 0
-0.434894 -0.350387 -0.051259 255 0 0
-0.073750 0.656215 0.403846 255 0 0
-0.424005 0.190010 0.118032 255 0 0
-0.063232 -0.078226 0.393115 255 0 0
-0.371554 -0.271611 0.193231 255 0 0
0.373298 0.009649 -0.351296 255 0 0
0.357855 -0.490991 -0.343939 255 0 0
0.347915 0.638467 0.118983 127 127 0
-0.170918 0.648670 0.376460 127 127 0
0.025433 -0.204517 0.390367 255 0 0
-0.400920 -0.201677 0.089570 255 0 0
0.215709 0.638467 0.249510 127 127 0
-0.464845 0.540131 0.038348 255 0 0
-0.330600 -0.649403 0.090588 255 0 0
-0.498486 0.570126 -0.104068 255 0 0
-0.117786 0.669197 -0.096874 127 127 0
0.163768 -0.282711 -0.509270 255 0 0
0.154569 0.624197 0.448048 255 0 0
0.026724 0.669197 -0.460665 127 127 0
0.397821 0.669197 -0.014866 127 127 0
-0.338735 -0.689070 0.069302 255 0 0
-0.108812 -0.032634 0.762864 0 255 0
0.512783 0.373489 -0.105718 255 0 0
-0.342913 -0.736988 -0.225113 255 0 0
-0.261812 0.417592 0.341694 255 0 0
0.014518 -0.685193 0.094196 255 0 0
-0.164193 0.133158 0.863559 0 255 0
-0.457700 -0.180051 -0.070488 255 0 0
-0.292535 -0.846595 -0.130464 255 0 0
-0.247735 -0.558456 0.265071 255 0 0
0.272209 0.701839 0.167835 127 127 0
0.333174 0.689081 -0.429728 255 0 0
-0.279406 0.178965 0.313595 255 0 0
-0.284564 0.254018 0.292313 255 0 0
0.043165 0.669197 -0.042784 127 127 0
-0.390784 0.010369 0.160326 255 0 0
0.428537 -0.156642 -0.275367 255 0 0
0.419574 0.122178 -0.301142 255 0 0
-0.434900 0.153865 -0.286439 255 0 0
-0.414473 -0.234439 0.121533 255 0 0
0.011894 0.385720 0.459913 255 0 0
-0.265981 0.040708 0.808717 0 255 0
0.505882 0.324789 -0.256921 255 0 0
0.502216 0.086233 -0.232768 255 0 0
0.448546 0.129596 0.169911 255 0 0
-0.080279 0.638467 0.295093 127 127 0
0.014573 -0.384402 -0.486999 255 0 0
0.500442 0.666685 -0.056756 255 0 0
0.404050 -0.321362 0.146956 255 0 0
-0.238647 -0.633655 0.211732 255 0 0
-0.361660 0.161028 -0.348362 255 0 0
0.408418 -0.615847 -0.216092 255 0 0
0.124392 -0.730113 -0.450439 255 0 0
-0.430242 0.466362 0.124742 255 0 0
0.437422 -0.425906 -0.136511 255 0 0
-0.073579 0.575630 0.793669 0 255 0
-0.296209 0.118993 0.271594 255 0 0
0.383241 0.676657 0.165244 127 127 0
-0.490625 0.226980 -0.035692 255 0 0
-0.447673 0.497042 0.075367 255 0 0
-0.144926 -0.220733 0.351781 255 0 0
-0.461689 0.730657 0.056712 127 127 0
0.444914 0.043927 -0.339781 255 0 0
-0.451842 0.045019 -0.054064 255 0 0
0.497677 0.638467 -0.104585 127 127 0
-0.449564 0.173286 0.134559 255 0 0
0.370985 0.052284 0.237610 255 0 0
0.269069 0.703554 -0.283498 127 127 0
0.157899 -0.343935 0.379810 255 0 0
-0.081671 0.669197 0.014078 127 127 0
-0.165538 0.665173 -0.500801 127 127 0
0.422233 -0.522793 0.106402 255 0 0
0.391831 -0.606460 0.134185 255 0 0
-0.309432 -0.486473 0.138954 255 0 0
0.391137 -0.327369 0.173808 255 0 0
-0.063691 -0.500175 0.570019 0 255 0
0.488710 0.458508 0.037597 255 0 0
0.030362 0.724251 0.029042 127 127 0
0.495339 0.338929 0.160007 255 0 0
-0.291881 0.638467 -0.139820 127 127 0
-0.052546 -0.685343 0.222468 255 0 0
-0.421737 -0.219640 -0.060122 255 0 0
-0.184599 0.082768 -0.522926 255 0 0
-0.429123 0.364395 -0.245455 255 0 0
0.355308 0.341996 -0.462410 255 0 0
-0.456121 0.386508 -0.261877 255 0 0
0.084659 0.045671 -0.513240 255 0 0
0.521241 0.258895 -0.205861 255 0 0
-0.034123 -0.049865 -0.553539 255 0 0
0.024492 0.300275 0.430049 255 0 0
0.156798 -0.225023 -0.489791 255 0 0
0.159835 -0.120920 0.379860 255 0 0
0.362776 -0.591151 0.090158 255 0 0
-0.421178 0.621108 0.217437 255 0 0
0.477819 0.176835 -0.235388 255 0 0
-0.070552 -0.065965 0.780242 0 255 0
-0.369497 0.435038 0.237729 255 0 0
-0.457485 0.173622 -0.236640 255 0 0
0.396632 -0.457199 -0.237089 255 0 0
0.469236 -0.037016 0.090035 255 0 0
0.262591 0.240956 -0.484418 255 0 0
0.269028 0.259766 0.363108 255 0 0
-0.219830 0.691086 0.222117 127 127 0
-0.208357 -0.142328 0.330720 255 0 0
0.140268 0.352068 0.418091 255 0 0
0.022957 0.182317 0.424709 255 0 0
0.059208 0.669197 0.135782 127 127 0
-0.190701 -0.437430 0.615229 0 255 0
0.029204 -0.279561 0.377743 255 0 0
-0.449528 0.460483 -0.056676 255 0 0
0.109850 0.704969 0.212409 127 127 0
0.287497 0.669197 -0.042519 127 127 0
0.328547 0.431270 0.303122 255 0 0
0.330095 0.638467 -0.197771 127 127 0
-0.184051 0.096935 0.349594 255 0 0
0.241219 -0.352120 -0.466015 255 0 0
-0.114288 -0.846595 -0.325270 255 0 0
-0.028114 0.054230 -0.563305 255 0 0
-0.410510 -0.076573 0.105465 255 0 0
-0.170086 0.372837 0.767726 0 255 0
0.323776 0.347315 0.326690 255 0 0
-0.356474 0.669197 -0.041869 127 127 0
0.365967 -0.542934 -0.318810 255 0 0
-0.118597 -0.576625 0.283416 255 0 0
0.278784 0.173651 0.352749 255 0 0
-0.394884 -0.580743 -0.026854 255 0 0
0.290981 0.360378 0.353826 255 0 0
0.327667 0.017012 -0.461448 255 0 0
-0.004863 -0.557373 0.331749 255 0 0
0.421651 -0.412622 -0.194530 255 0 0
-0.467758 0.146276 0.077651 255 0 0
-0.016745 0.126212 -0.538806 255 0 0
-0.225369 0.288844 0.357745 255 0 0
-0.263484 -0.097307 0.302417 255 0 0
0.115246 0.316607 -0.572357 255 0 0
-0.232957 0.699853 0.393317 127 127 0
0.404141 -0.097144 -0.327500 255 0 0
-0.368076 0.585764 0.288324 255 0 0
0.439599 -0.122072 -0.319064 255 0 0
0.379618 0.676070 -0.292718 127 127 0
0.278070 0.136574 -0.468760 255 0 0
0.296010 -0.689070 0.213240 255 0 0
-0.109748 0.055323 0.425915 255 0 0
-0.375230 -0.503583 -0.115932 255 0 0
-0.110508 -0.358991 -0.498917 255 0 0
-0.414891 -0.103905 -0.207142 255 0 0
0.268720 -0.489509 -0.424075 255 0 0
0.513264 0.475344 -0.008796 255 0 0
-0.066321 -0.366641 0.708722 0 255 0
0.287540 -0.171061 -0.433161 255 0 0
0.445215 -0.090935 0.194591 255 0 0
-0.150421 0.200347 0.389827 255 0 0
0.077441 -0.155447 0.372406 255 0 0
-0.197920 -0.068121 0.380611 255 0 0
0.403784 0.638467 -0.057741 127 127 0
-0.183655 0.638467 0.004315 127 127 0
0.200368 0.638467 -0.333535 127 127 0
-0.449452 0.517613 -0.046502 255 0 0
0.194065 0.364934 -0.520739 255 0 0
-0.173928 0.696667 0.422043 127 127 0
-0.393807 0.404332 -0.371955 255 0 0
-0.452877 -0.206302 -0.099831 255 0 0
-0.101758 -0.375814 -0.448305 255 0 0
-0.251352 -0.052319 0.743836 0 255 0
0.379857 -0.834506 0.109465 255 0 0
-0.441140 -0.007003 -0.116803 255 0 0
0.248045 0.638467 -0.451659 127 127 0
-0.210298 0.609203 0.409161 255 0 0
-0.401096 -0.339745 0.000087 255 0 0
-0.353998 -0.034235 0.217510 255 0 0
0.532152 0.188507 0.020016 255 0 0
-0.030997 -0.832464 0.330348 255 0 0
0.523963 0.377461 -0.209382 255 0 0
0.178756 -0.543427 -0.459861 255 0 0
-0.452471 0.188616 -0.154905 255 0 0
-0.064464 -0.359804 0.356788 255 0 0
-0.073705 -0.473071 0.601946 0 255 0
0.240816 0.444778 0.380205 255 0 0
-0.043281 -0.609586 0.348730 255 0 0
-0.312716 0.154566 -0.404176 255 0 0
-0.215069 0.241892 0.852088 0 255 0
0.341630 0.516643 -0.436487 255 0 0
-0.394777 0.046193 -0.241810 255 0 0
0.474463 -0.287961 -0.192736 255 0 0
-0.041467 0.620714 -0.582163 255 0 0
0.383217 -0.653129 -0.171360 255 0 0
-0.027491 0.724516 0.044641 127 127 0
-0.095894 0.708108 -0.343474 127 127 0
-0.268780 0.248877 -0.448567 255 0 0
0.427392 -0.048600 -0.294252 255 0 0
0.498330 0.502061 -0.087782 255 0 0
-0.022492 0.215118 -0.574264 255 0 0
0.044193 0.579869 -0.585577 255 0 0
-0.423935 -0.297937 0.069977 255 0 0
0.461478 -0.147041 -0.032779 255 0 0
-0.309836 -0.204056 -0.404448 255 0 0
-0.184976 0.419767 0.382888 255 0 0
-0.112888 0.669197 -0.129064 127 127 0
0.374025 -0.233620 -0.383609 255 0 0
0.506041 0.168137 -0.039142 255 0 0
0.375093 -0.202867 -0.340935 255 0 0
0.328660 -0.683007 0.190273 255 0 0
0.097996 -0.584638 -0.424973 255 0 0
-0.218314 -0.151651 0.799570 0 255 0
0.387447 0.340292 -0.433658 255 0 0
-0.243182 -0.306168 -0.407707 255 0 0
-0.260537 0.687087 -0.323691 127 127 0
0.258254 0.669197 0.113913 127 127 0
0.346014 -0.677611 -0.015390 255 0 0
-0.196836 0.669197 -0.143833 127 127 0
-0.445060 0.556084 0.169746 255 0 0
-0.424464 -0.126807 0.024981 255 0 0
0.510613 0.463926 -0.251536 255 0 0
0.129743 0.692374 -0.215511 127 127 0
-0.317155 0.088180 -0.398276 255 0 0
0.332108 0.591112 0.365378 255 0 0
0.217979 0.448419 0.423843 255 0 0
-0.465632 0.085579 -0.191290 255 0 0
0.192648 0.669197 0.061437 127 127 0
-0.347098 0.427347 -0.355738 255 0 0
0.164537 0.669197 -0.405003 127 127 0
-0.144932 0.284435 0.428607 255 0 0
0.000484 0.205562 0.425204 255 0 0
-0.166184 0.046462 0.372659 255 0 0
0.390046 -0.393468 0.156501 255 0 0
0.319302 -0.243339 0.274891 255 0 0
0.026608 -0.689070 -0.434310 255 0 0
-0.130201 -0.073886 -0.529951 255 0 0
0.438378 -0.456511 -0.034657 255 0 0
-0.399832 -0.285869 0.138151 255 0 0
0.275441 -0.164507 0.353086 255 0 0
-0.168838 -0.027020 0.364383 255 0 0
-0.020181 0.638467 -0.306455 127 127 0
-0.376896 -0.345836 -0.221495 255 0 0
0.334154 0.638467 -0.356103 127 127 0
-0.111763 -0.108550 0.409981 255 0 0
0.357903 0.688407 -0.250148 127 127 0
-0.309690 0.669197 -0.305565 127 127 0
-0.436207 0.510239 -0.231942 255 0 0
-0.340320 -0.282179 -0.303997 255 0 0
-0.428190 -0.005542 0.062195 255 0 0
-0.356064 0.036210 0.269000 255 0 0
0.480365 0.056793 -0.098084 255 0 0
0.213629 0.014555 0.403968 255 0 0
-0.478040 0.305550 -0.189586 255 0 0
0.497058 -0.247923 -0.096743 255 0 0
0.446927 -0.262690 0.149739 255 0 0
0.010835 0.437951 -0.554710 255 0 0
0.395901 -0.182198 -0.317431 255 0 0
-0.392338 -0.526415 -0.168780 255 0 0
0.519595 0.078611 0.048544 255 0 0
0.360311 -0.690851 0.151709 255 0 0
0.053918 0.432604 -0.534292 255 0 0
-0.139094 0.512089 -0.556776 255 0 0
0.134905 -0.081048 0.419782 255 0 0
0.399961 -0.171187 0.197376 255 0 0
-0.065819 0.549832 0.759253 0 255 0
-0.220960 -0.535554 -0.352053 255 0 0
-0.192681 0.692807 0.236090 127 127 0
0.100170 0.466128 0.427487 255 0 0
-0.042972 0.694845 0.357817 127 127 0
-0.416745 0.614361 0.115193 255 0 0
-0.012598 0.669197 -0.055334 127 127 0
0.148207 0.663487 -0.524082 127 127 0
0.471344 -0.028243 -0.007080 255 0 0
0.374949 -0.581051 -0.236965 255 0 0
0.451778 -0.107304 0.116189 255 0 0
-0.340667 -0.016998 -0.353933 255 0 0
-0.305734 -0.230390 -0.359287 255 0 0
-0.103335 0.206903 -0.510372 255 0 0
0.426800 0.380473 0.219315 255 0 0
0.483430 0.370491 0.053184 255 0 0
-0.137930 -0.584390 0.412129 0 255 0
0.411117 -0.312989 -0.217270 255 0 0
-0.177387 0.704601 0.138692 127 127 0
0.500192 0.035073 -0.060079 255 0 0
0.280265 0.502700 0.358705 255 0 0
0.273893 0.085407 0.349149 255 0 0
0.267366 0.707262 -0.239724 127 127 0
0.285549 0.173337 -0.466405 255 0 0
0.527734 0.730657 -0.006016 127 127 0
0.082995 0.686049 -0.151253 127 127 0
0.384928 -0.654262 0.080634 255 0 0
0.527832 0.400092 0.074959 255 0 0
0.471530 0.209054 0.194741 255 0 0
0.137414 0.381539 -0.520469 255 0 0
-0.368635 0.303645 0.233932 255 0 0
0.329015 -0.366199 0.242156 255 0 0
0.492748 0.526416 -0.142794 255 0 0
-0.404043 -0.470258 -0.163043 255 0 0
-0.111153 -0.141058 -0.478220 255 0 0
-0.190142 -0.609599 0.257305 255 0 0
0.281678 0.669197 -0.127756 127 127 0
0.276689 -0.333333 0.288530 255 0 0
0.439518 -0.436990 -0.071900 255 0 0
-0.220298 -0.082881 -0.488876 255 0 0
-0.088441 0.029331 0.400458 255 0 0
-0.369937 0.205030 -0.341143 255 0 0
0.456473 -0.126927 -0.220175 255 0 0
-0.339945 0.718149 0.312881 127 127 0
0.505821 0.261796 0.128632 255 0 0
0.103349 -0.685193 0.054861 255 0 0
-0.094619 0.695952 -0.246007 127 127 0
-0.427282 0.245792 -0.239476 255 0 0
-0.446153 0.159334 0.039941 255 0 0
-0.156546 -0.454659 0.605324 0 255 0
-0.428490 0.519134 0.198593 255 0 0
0.546406 0.460578 -0.040789 255 0 0
0.447220 -0.543331 0.005346 255 0 0
0.125841 0.638467 -0.205854 127 127 0
-0.072172 0.638467 -0.387530 127 127 0
-0.063565 0.501813 0.749254 0 255 0
0.106791 -0.686226 0.298377 255 0 0
-0.370165 0.170136 0.215500 255 0 0
0.256098 -0.325362 0.307732 255 0 0
0.127813 -0.846595 0.242899 255 0 0
0.521481 0.730657 -0.079416 127 127 0
0.143490 -0.041115 0.389578 255 0 0
-0.076819 0.241841 0.417076 255 0 0
0.140049 0.246561 0.442735 255 0 0
-0.282112 -0.016400 0.332986 255 0 0
-0.433730 -0.006227 -0.161817 255 0 0
0.156604 -0.296508 0.354841 255 0 0
-0.145738 -0.338319 0.337814 255 0 0
-0.317183 0.673502 0.145555 127 127 0
0.399328 -0.288567 -0.286895 255 0 0
-0.298998 -0.426987 0.201209 255 0 0
0.355451 0.034959 -0.374749 255 0 0
0.137951 -0.846595 -0.124477 255 0 0
-0.089996 -0.436584 -0.459990 255 0 0
0.233365 0.110433 0.369379 255 0 0
-0.286300 0.669197 -0.059630 127 127 0
0.102197 -0.158762 0.417578 255 0 0
-0.497022 0.675414 -0.064495 255 0 0
0.015947 0.669197 0.072066 127 127 0
-0.395427 -0.259308 -0.205788 255 0 0
0.331334 -0.012090 -0.392288 255 0 0
-0.110506 -0.014845 0.862315 0 255 0
-0.020032 0.359016 -0.579653 255 0 0
0.273009 0.693781 -0.512628 127 127 0
0.524505 0.365069 0.085060 255 0 0
-0.086368 -0.012014 0.772539 0 255 0
-0.369043 -0.331382 -0.303400 255 0 0
-0.471058 0.693781 -0.001421 127 127 0
0.513669 0.730657 -0.046468 127 127 0
0.528296 0.059202 -0.018943 255 0 0
0.418195 0.172222 0.217425 255 0 0
-0.355840 0.493529 -0.418482 255 0 0
0.336236 -0.121383 -0.396448 255 0 0
-0.464784 0.403829 -0.094826 255 0 0
-0.183985 -0.302866 0.613633 0 255 0
0.224345 0.669197 -0.027248 127 127 0
-0.054898 0.692413 0.108467 127 127 0
0.230700 0.669197 -0.103704 127 127 0
0.337230 0.028312 0.297363 255 0 0
0.251324 0.560818 0.356188 255 0 0
-0.437768 0.693781 0.158196 127 127 0
0.420917 -0.203616 -0.231598 255 0 0
0.141734 0.506154 -0.569978 255 0 0
-0.328201 -0.539232 0.121506 255 0 0
0.403847 -0.507135 0.083812 255 0 0
-0.015749 0.669197 0.141210 127 127 0
0.318297 -0.245266 0.311293 255 0 0
0.267467 0.450300 -0.491836 255 0 0
-0.025963 -0.271185 -0.501228 255 0 0
0.166337 -0.008700 -0.511081 255 0 0
-0.123440 0.455816 0.566711 0 255 0
-0.241540 0.484787 -0.510346 255 0 0
-0.448288 0.075006 0.120396 255 0 0
-0.363316 0.014136 0.206329 255 0 0
-0.287471 -0.487285 0.204330 255 0 0
0.279691 -0.637940 -0.381492 255 0 0
0.345776 -0.105128 0.272513 255 0 0
0.276960 0.669197 0.246828 127 127 0
-0.062281 -0.606094 -0.417598 255 0 0
0.516665 -0.016695 -0.144792 255 0 0
0.267304 0.730657 0.388278 127 127 0
-0.259911 -0.513000 0.197582 255 0 0
0.432079 0.669197 -0.135337 127 127 0
0.097819 0.669197 -0.294878 127 127 0
0.151834 -0.846595 -0.099094 255 0 0
0.089282 -0.558469 0.327382 255 0 0
-0.297301 0.468697 -0.436582 255 0 0
0.399085 0.036924 0.276096 255 0 0
-0.216384 -0.462619 0.309307 255 0 0
0.447650 -0.191606 0.028231 255 0 0
-0.043260 -0.339911 -0.488766 255 0 0
-0.328734 -0.129908 0.228658 255 0 0
-0.060836 -0.394881 0.354955 255 0 0
-0.464341 -0.092332 -0.115264 255 0 0
-0.373813 -0.766943 -0.007338 255 0 0
-0.338751 0.693423 0.293749 255 0 0
0.380072 0.114925 -0.426001 255 0 0
0.259373 -0.619967 -0.366253 255 0 0
0.404359 -0.830077 0.057563 255 0 0
0.315456 0.702982 -0.223067 127 127 0
-0.101544 0.130502 0.404906 255 0 0
-0.321461 -0.846497 -0.118671 255 0 0
0.130974 0.692767 -0.413630 127 127 0
-0.055088 0.530141 0.625798 0 255 0
-0.252448 0.302236 -0.499529 255 0 0
0.426169 0.070480 -0.369500 255 0 0
0.322299 -0.029641 -0.425452 255 0 0
0.512243 0.281991 -0.011394 255 0 0
-0.317778 0.669197 -0.211477 127 127 0
0.487500 0.535997 -0.226792 255 0 0
-0.024121 0.036986 0.440584 255 0 0
0.270581 0.638467 0.055539 127 127 0
0.060791 -0.110670 -0.521620 255 0 0
0.471065 -0.101263 0.061908 255 0 0
0.370940 -0.846449 0.041823 255 0 0
-0.032946 -0.287154 0.376043 255 0 0
-0.089833 -0.846595 0.098361 255 0 0
0.016889 0.129548 0.421395 255 0 0
0.399289 -0.560496 -0.025833 255 0 0
-0.148658 -0.283190 0.341671 255 0 0
-0.422050 0.137499 -0.308971 255 0 0
-0.001055 0.638467 -0.365278 127 127 0
-0.245433 0.289547 0.751835 0 255 0
0.475063 0.383140 0.140240 255 0 0
-0.092517 -0.311868 -0.482057 255 0 0
0.331248 0.334837 0.358901 255 0 0
-0.443356 0.351685 -0.204946 255 0 0
-0.243243 -0.682027 0.237159 255 0 0
0.248517 -0.457515 0.321065 255 0 0
-0.519755 0.730657 -0.088882 127 127 0
-0.128482 0.638467 0.335124 127 127 0
0.202156 -0.411883 -0.474771 255 0 0
0.531333 0.539745 -0.187094 255 0 0
0.093507 0.730657 0.431813 127 127 0
0.265875 -0.389772 -0.408078 255 0 0
0.411557 0.669197 -0.155468 127 127 0
-0.111164 0.592880 -0.568608 255 0 0
-0.028378 0.469796 0.427524 255 0 0
-0.423589 0.425397 -0.216276 255 0 0
0.481890 0.074120 -0.202787 255 0 0
-0.179049 -0.846595 0.131893 255 0 0
-0.078044 0.685870 -0.082443 127 127 0
0.381665 -0.600893 -0.276447 255 0 0
0.498481 -0.161324 -0.162085 255 0 0
-0.371993 -0.155638 0.160171 255 0 0
0.470361 0.032992 0.173221 255 0 0
0.422872 0.278934 0.189537 255 0 0
-0.168996 0.638467 0.211607 127 127 0
0.417545 -0.670426 -0.151178 255 0 0
0.390325 0.056539 -0.368515 255 0 0
0.031446 0.150725 0.450632 255 0 0
-0.283866 0.730657 0.312986 127 127 0
-0.101474 -0.057139 -0.508232 255 0 0
-0.343855 -0.347526 0.214305 255 0 0
-0.225218 0.177832 -0.473714 255 0 0
0.137059 -0.153345 -0.501227 255 0 0
0.452469 0.429047 -0.308472 255 0 0
0.418238 -0.467106 0.054309 255 0 0
0.391350 -0.546382 0.158162 255 0 0
0.152869 -0.102638 -0.506079 255 0 0
0.485650 0.168775 -0.004066 255 0 0
-0.025507 -0.607559 0.381834 0 255 0
0.479520 0.414502 -0.245291 255 0 0
0.038637 0.555263 -0.535125 255 0 0
0.429983 0.348068 0.182239 255 0 0
-0.373958 -0.260131 0.128240 255 0 0
-0.460627 0.486067 0.017168 255 0 0
0.400539 -0.521002 -0.135551 255 0 0
0.239724 0.083294 -0.486156 255 0 0
0.427994 0.670173 0.069795 127 127 0
-0.429733 0.043799 -0.279624 255 0 0
0.212295 -0.069711 -0.518230 255 0 0
-0.074358 0.045441 0.796873 0 255 0
-0.034010 -0.496550 -0.464841 255 0 0
-0.228797 0.164111 -0.506379 255 0 0
0.190804 -0.414146 0.356893 255 0 0
0.404741 -0.374628 -0.251313 255 0 0
0.267925 0.419449 -0.487401 255 0 0
0.497384 -0.089395 0.076855 255 0 0
0.225831 -0.173823 0.344020 255 0 0
0.289079 -0.019909 0.361871 255 0 0
-0.280694 -0.109864 -0.381087 255 0 0
-0.443397 -0.240967 0.018328 255 0 0
-0.266390 0.378591 0.312304 255 0 0
0.300166 -0.481854 -0.361327 255 0 0
-0.227926 -0.041142 -0.489108 255 0 0
0.165828 -0.617927 0.298764 255 0 0
0.421927 -0.400981 -0.131454 255 0 0
-0.207863 0.694564 -0.528558 127 127 0
0.043036 0.676875 -0.539805 127 127 0
0.275324 0.286222 0.357127 255 0 0
0.408498 -0.359189 -0.311312 255 0 0
0.221118 0.157068 0.378342 255 0 0
0.422809 -0.476791 0.125045 255 0 0
-0.076033 0.638467 0.324077 127 127 0
0.516119 0.169609 0.085435 255 0 0
-0.395975 0.310709 0.152116 255 0 0
0.504360 -0.200669 -0.063021 255 0 0
-0.107978 -0.490434 -0.477609 255 0 0
-0.461140 -0.148801 -0.050801 255 0 0
0.146147 0.695144 0.345590 127 127 0
-0.424303 0.061965 0.027851 255 0 0
0.372787 -0.432918 -0.340852 255 0 0
0.485143 0.097690 -0.275805 255 0 0
0.325766 0.246634 -0.442529 255 0 0
0.220740 -0.661231 -0.415188 255 0 0
-0.388976 0.729550 0.257710 127 127 0
-0.234094 -0.355059 -0.440138 255 0 0
0.090692 0.390820 -0.550009 255 0 0
-0.348951 -0.138122 0.169555 255 0 0
0.087911 0.436440 0.409533 255 0 0
-0.153213 0.541745 0.660414 0 255 0
0.163091 0.441043 0.413714 255 0 0
-0.454950 -0.099926 -0.167532 255 0 0
0.063419 0.669197 -0.435614 127 127 0
0.396025 -0.113009 0.258193 255 0 0
0.278464 0.083500 -0.464051 255 0 0
-0.291860 0.393767 -0.440096 255 0 0
-0.076674 0.669197 -0.452444 127 127 0
-0.330123 -0.494290 0.094680 255 0 0
0.019751 0.715643 0.121840 127 127 0
-0.428632 0.010917 -0.275740 255 0 0
0.443750 0.561128 -0.377565 255 0 0
-0.172409 0.070694 0.764308 0 255 0
-0.434456 0.289591 0.103734 255 0 0
-0.352277 -0.759345 0.080012 255 0 0
-0.071005 0.417775 -0.542466 255 0 0
0.341482 0.683963 0.180649 127 127 0
0.406810 -0.540027 0.132450 255 0 0
0.499539 -0.078359 -0.195506 255 0 0
-0.354677 -0.372472 -0.314857 255 0 0
-0.270466 -0.547620 0.175773 255 0 0
-0.483037 0.523829 0.061210 255 0 0
-0.378469 -0.581252 -0.181933 255 0 0
0.548224 0.601597 -0.020370 255 0 0
0.384344 0.219571 -0.430243 255 0 0
-0.344942 0.485354 0.273569 255 0 0
-0.392289 -0.001580 -0.277399 255 0 0
0.403616 -0.665502 -0.201203 255 0 0
-0.197142 0.460570 0.503413 0 255 0
-0.102220 -0.620565 0.280177 255 0 0
0.134571 0.669197 0.178699 127 127 0
-0.368866 -0.460322 -0.180238 255 0 0
-0.436983 -0.323857 -0.102833 255 0 0
0.044309 0.369811 -0.533468 255 0 0
-0.380681 -0.184555 0.199473 255 0 0
-0.230716 -0.481429 -0.417791 255 0 0
0.486855 0.495143 0.106348 255 0 0
-0.109279 0.095954 -0.519251 255 0 0
-0.009986 -0.477285 0.511634 0 255 0
-0.308862 -0.628878 0.130638 255 0 0
0.197989 -0.374540 -0.451843 255 0 0
0.113719 0.669197 0.303927 127 127 0
-0.303356 0.341678 0.342642 255 0 0
-0.059462 -0.113862 0.421354 255 0 0
0.055886 0.638467 0.029638 127 127 0
0.252572 -0.533075 0.302978 255 0 0
-0.431285 0.152488 0.092284 255 0 0
0.366344 -0.467940 0.217699 255 0 0
-0.058360 -0.251703 -0.526946 255 0 0
-0.484119 0.619328 0.070517 255 0 0
0.321253 0.234278 0.361500 255 0 0
-0.018852 0.669197 -0.352141 127 127 0
-0.261686 -0.472920 0.231190 255 0 0
-0.129351 -0.500261 0.555106 0 255 0
0.477066 -0.083417 -0.154716 255 0 0
-0.212934 0.638467 -0.377353 127 127 0
-0.089390 0.540435 0.669579 0 255 0
-0.330086 -0.443593 0.158272 255 0 0
0.301308 -0.565189 -0.314282 255 0 0
0.143948 0.669197 -0.056125 127 127 0
-0.177935 0.567956 0.368493 255 0 0
0.151035 0.100723 0.399624 255 0 0
-0.232637 0.334776 0.848127 0 255 0
0.287289 -0.453135 0.234492 255 0 0
-0.239061 0.323553 -0.476364 255 0 0
0.024050 0.669197 -0.163461 127 127 0
0.463435 -0.419845 0.033643 255 0 0
0.106185 0.459169 0.454816 255 0 0
-0.476313 0.505463 -0.069584 255 0 0
-0.272288 0.090511 -0.438433 255 0 0
0.102555 -0.373988 0.359717 255 0 0
0.305323 0.669197 0.018957 127 127 0
0.372640 0.241772 0.253471 255 0 0
0.494477 0.694409 0.167049 127 127 0
0.456906 0.468393 -0.294481 255 0 0
-0.396014 0.638467 -0.058532 127 127 0
-0.225853 -0.537784 0.252048 255 0 0
0.203692 0.638467 -0.236109 127 127 0
-0.122795 0.699901 0.143237 127 127 0
0.140365 -0.685193 0.047697 255 0 0
-0.059098 -0.062717 -0.517403 255 0 0
-0.415790 0.327683 0.109500 255 0 0
-0.059410 0.452221 -0.576336 255 0 0
-0.304289 -0.338984 -0.384379 255 0 0
0.148749 -0.254105 0.395431 255 0 0
-0.257933 0.034901 0.773026 0 255 0
-0.275722 0.638467 0.106360 127 127 0
0.300209 -0.083495 -0.431785 255 0 0
-0.124803 0.444086 0.529607 0 255 0
0.011739 -0.416860 0.388253 255 0 0
0.187041 0.482977 -0.530629 255 0 0
-0.241956 -0.226131 0.761130 0 255 0
-0.372640 -0.420401 -0.189655 255 0 0
0.168421 0.263186 -0.558091 255 0 0
-0.239286 0.073844 0.314384 255 0 0
-0.404514 -0.200780 0.153760 255 0 0
0.123905 0.056357 -0.556290 255 0 0
0.420785 -0.714794 -0.125505 255 0 0
-0.226808 0.461553 0.396451 255 0 0
0.492920 -0.148347 0.068474 255 0 0
-0.478549 0.215592 -0.172627 255 0 0
-0.306432 -0.562740 -0.272521 255 0 0
-0.470411 0.484328 -0.226771 255 0 0
0.250784 -0.024720 -0.505274 255 0 0
-0.180927 0.465350 0.419017 255 0 0
-0.132664 0.141365 -0.547298 255 0 0
-0.383305 -0.106483 0.150656 255 0 0
0.516197 0.226043 -0.217197 255 0 0
0.261079 0.669197 -0.343366 127 127 0
-0.129873 0.389982 -0.508691 255 0 0
-0.262588 -0.443807 0.278766 255 0 0
-0.116408 0.411292 0.441120 255 0 0
-0.143574 0.100652 -0.508029 255 0 0
-0.039842 0.401036 0.425266 255 0 0
-0.376694 -0.776939 -0.036740 255 0 0
0.504554 0.693781 -0.053079 127 127 0
0.166865 -0.742167 -0.437368 255 0 0
0.479382 -0.131311 0.115130 255 0 0
0.483592 0.288848 -0.164505 255 0 0
-0.112015 -0.273996 0.359739 255 0 0
-0.150792 -0.006158 -0.496147 255 0 0
0.071973 0.659471 0.415816 127 127 0
-0.145703 0.271098 -0.499331 255 0 0
0.342804 0.115089 -0.395769 255 0 0
-0.077362 0.377731 0.810448 0 255 0
-0.246766 -0.251217 0.326890 255 0 0
0.083206 0.331902 0.455558 255 0 0
-0.176304 0.669197 0.206323 127 127 0
0.489188 0.343885 0.092907 255 0 0
-0.336009 -0.257856 -0.321553 255 0 0
0.170240 -0.616797 -0.448350 255 0 0
-0.330380 0.518788 -0.400787 255 0 0
-0.278545 0.638467 -0.078140 127 127 0
0.429985 -0.396487 -0.262610 255 0 0
0.360838 -0.210002 0.208817 255 0 0
0.510917 0.127538 0.093842 255 0 0
0.041634 0.238998 -0.546536 255 0 0
0.132975 -0.279236 0.367055 255 0 0
0.497596 0.387482 -0.075413 255 0 0
0.382439 0.344773 0.277857 255 0 0
0.391686 0.171662 -0.419225 255 0 0
-0.416867 0.667348 -0.238148 255 0 0
0.485931 -0.047135 -0.141964 255 0 0
-0.066776 -0.476456 0.436874 0 255 0
0.193532 -0.846595 -0.135160 255 0 0
0.308871 0.377502 -0.464394 255 0 0
-0.177351 0.669197 0.032327 127 127 0
0.039564 0.692184 -0.245239 127 127 0
-0.401758 -0.199061 -0.127510 255 0 0
-0.041109 0.479489 -0.578880 255 0 0
0.331287 0.706627 0.361913 127 127 0
0.455098 -0.326582 -0.122886 255 0 0
0.024884 0.669197 -0.129024 127 127 0
0.430924 -0.651258 -0.082459 255 0 0
0.329299 -0.256660 -0.356945 255 0 0
0.055142 0.669197 -0.272108 127 127 0
0.500400 0.107674 -0.133756 255 0 0
-0.241697 0.539434 0.701019 0 255 0
-0.172508 0.669197 0.094075 127 127 0
0.492317 0.197016 -0.196115 255 0 0
0.068673 0.687932 -0.210746 127 127 0
0.488113 -0.008587 0.011445 255 0 0
0.297868 0.464347 0.352271 255 0 0
-0.323006 -0.308076 -0.371055 255 0 0
-0.180326 0.264892 -0.536264 255 0 0
-0.204073 0.273732 -0.471963 255 0 0
0.056676 -0.204445 -0.508153 255 0 0
0.345806 0.273052 -0.467128 255 0 0
-0.260353 -0.347383 -0.386122 255 0 0
0.486452 0.447249 -0.304386 255 0 0
0.093445 -0.464358 -0.497318 255 0 0
0.027774 0.530718 -0.583130 255 0 0
-0.016652 -0.476275 0.541198 0 255 0
0.007341 -0.097091 -0.552240 255 0 0
-0.127586 -0.649310 0.258101 255 0 0
-0.223897 0.644357 0.348685 127 127 0
-0.377799 0.293609 -0.342527 255 0 0
-0.107941 0.044320 0.776802 0 255 0
0.395163 -0.653484 -0.001599 255 0 0
0.340382 0.179122 -0.465858 255 0 0
0.112246 -0.846595 -0.181310 255 0 0
0.244329 -0.201541 -0.452198 255 0 0
-0.407489 0.368284 -0.351618 255 0 0
0.277453 -0.533719 -0.368552 255 0 0
-0.387430 0.104433 0.181415 255 0 0
0.532211 0.693781 -0.042898 127 127 0
-0.455065 0.165675 -0.107294 255 0 0
-0.383354 -0.169923 -0.256858 255 0 0
0.331924 0.538320 0.322564 255 0 0
0.326191 0.669197 0.148706 127 127 0
-0.460892 0.236296 -0.060815 255 0 0
0.464493 0.185486 0.138141 255 0 0
0.332577 -0.036019 -0.451663 255 0 0
0.427596 -0.021736 -0.354603 255 0 0
-0.119010 -0.846595 -0.175860 255 0 0
0.260286 -0.093754 -0.457290 255 0 0
0.478880 0.221313 0.108576 255 0 0
0.220169 0.706884 0.165234 127 127 0
-0.034655 -0.120551 -0.515083 255 0 0
-0.007429 -0.648794 0.345119 255 0 0
0.062912 0.202732 0.424213 255 0 0
-0.259706 -0.650528 0.200708 255 0 0
-0.230841 0.638467 -0.312217 127 127 0
-0.324809 0.090394 0.238296 255 0 0
-0.403316 -0.405060 0.082077 255 0 0
0.482104 0.252720 0.179780 255 0 0
-0.462074 0.343391 0.012446 255 0 0
-0.264416 0.638467 -0.362954 127 127 0
-0.351966 0.021220 -0.350453 255 0 0
-0.323017 0.397708 0.327519 255 0 0
-0.072977 0.044628 0.433738 255 0 0
-0.137735 0.191260 -0.519489 255 0 0
0.163232 0.496466 -0.532631 255 0 0
-0.297257 0.049901 -0.408764 255 0 0
-0.268639 0.107263 0.820507 0 255 0
0.113224 0.418222 0.405068 255 0 0
0.212468 0.496744 0.393105 255 0 0
-0.351327 0.050046 -0.355065 255 0 0
0.115944 -0.450836 -0.466424 255 0 0
-0.165234 0.014384 0.373394 255 0 0
-0.227735 0.317995 -0.514891 255 0 0
0.383984 0.106352 0.259110 255 0 0
-0.207648 -0.254813 0.294953 255 0 0
-0.131579 -0.208400 0.391615 255 0 0
0.117408 -0.277383 -0.472918 255 0 0
-0.215874 0.067821 0.329143 255 0 0
-0.044338 0.241747 0.419854 255 0 0
-0.292195 0.669197 -0.146569 127 127 0
0.281057 0.265439 -0.510382 255 0 0
0.015615 0.004351 -0.561975 255 0 0
-0.406068 -0.101633 -0.296531 255 0 0
-0.246895 -0.171541 0.724069 0 255 0
-0.084054 0.038435 -0.504120 255 0 0
0.273093 -0.029542 -0.456463 255 0 0
0.167443 0.315255 -0.560361 255 0 0
-0.189267 -0.351854 -0.467514 255 0 0
-0.158017 0.638467 -0.452035 127 127 0
-0.478525 0.058115 -0.109680 255 0 0
0.093329 0.638467 -0.188061 127 127 0
-0.330255 0.115945 0.260343 255 0 0
0.372701 -0.629989 0.091310 255 0 0
0.331289 0.392238 -0.422003 255 0 0
-0.017961 0.638467 -0.408453 127 127 0
0.407172 -0.763955 -0.185326 255 0 0
-0.452549 0.335195 0.047612 255 0 0
-0.204099 -0.400833 0.534273 0 255 0
0.024331 0.375701 -0.581741 255 0 0
-0.328839 0.079839 0.302341 255 0 0
0.010095 -0.563592 0.362869 255 0 0
0.442635 -0.505445 0.057936 255 0 0
-0.445033 0.127124 -0.157871 255 0 0
0.130594 -0.461018 -0.440343 255 0 0
0.152908 0.415985 0.444510 255 0 0
0.421160 -0.056657 -0.268679 255 0 0
-0.319513 -0.604486 0.173371 255 0 0
-0.020855 0.684596 -0.001561 127 127 0
0.063525 0.730657 0.440411 127 127 0
0.413729 -0.441548 -0.277460 255 0 0
0.451985 0.280923 -0.353899 255 0 0
