ply
format ascii 1.0
element vertex 1297
property float x
property float y
property float z
property uchar red
property uchar green
property uchar blue
end_header
0.333735 -0.132880 -0.397083 255 0 0
0.042598 -0.181476 -0.543013 255 0 0
-0.198341 -0.516515 0.257557 255 0 0
-0.316038 -0.779779 0.147367 255 0 0
-0.109503 0.205999 0.404144 255 0 0
0.312691 0.724622 0.283663 127 127 0
-0.436866 0.041339 -0.166605 255 0 0
0.066008 -0.108266 0.396593 255 0 0
0.059900 -0.332970 0.368638 255 0 0
-0.063385 -0.551487 -0.446096 255 0 0
-0.321243 0.638467 0.005580 127 127 0
0.215855 -0.617707 0.255492 255 0 0
0.433316 0.693781 -0.341951 255 0 0
-0.356665 -0.089988 -0.320960 255 0 0
0.101750 -0.689070 0.305275 255 0 0
-0.000081 -0.521439 0.369875 255 0 0
-0.094847 0.590016 0.447434 255 0 0
-0.377238 -0.370589 -0.201199 255 0 0
-0.502602 0.730657 -0.027036 127 127 0
0.052404 0.669197 -0.042666 127 127 0
0.000555 -0.842720 -0.285068 255 0 0
0.068120 0.730611 -0.244950 127 127 0
0.083758 0.638467 -0.491563 127 127 0
0.314959 0.484051 0.320212 255 0 0
-0.194472 0.290382 -0.496755 255 0 0
0.330860 -0.315187 -0.368166 255 0 0
-0.305142 -0.271946 -0.352181 255 0 0
0.276567 0.638467 -0.344691 127 127 0
0.492400 0.019653 0.122164 255 0 0
-0.164694 0.638467 -0.375560 127 127 0
0.345930 -0.796553 -0.298092 255 0 0
0.398849 -0.569576 0.054606 255 0 0
0.493030 -0.208121 0.038574 255 0 0
-0.240486 -0.842720 -0.160267 255 0 0
-0.349993 0.473925 0.302674 255 0 0
-0.020015 0.725359 0.387247 127 127 0
-0.012556 0.174740 0.419787 255 0 0
0.494967 0.438417 0.081176 255 0 0
-0.450022 0.693781 0.073057 127 127 0
0.437970 -0.445244 -0.044836 255 0 0
-0.051030 -0.415593 0.382173 255 0 0
0.186192 -0.673737 -0.395028 255 0 0
-0.456576 0.359362 0.029805 255 0 0
0.259450 0.238156 0.364036 255 0 0
0.331637 -0.057839 -0.449863 255 0 0
0.171824 -0.842720 0.076064 255 0 0
0.177609 0.517292 0.393065 255 0 0
0.464195 0.641819 0.130284 255 0 0
-0.264035 0.507148 -0.458646 255 0 0
0.474192 0.041806 0.041657 255 0 0
0.368565 -0.575568 -0.217969 255 0 0
-0.068522 -0.224039 0.771241 0 255 0
-0.107607 0.706776 -0.566300 127 127 0
-0.436652 -0.068805 -0.014763 255 0 0
0.271158 0.538759 -0.486249 255 0 0
-0.152447 -0.461084 -0.431845 255 0 0
0.436260 0.263257 -0.374497 255 0 0
-0.169429 0.693089 -0.052621 127 127 0
-0.140417 -0.842720 -0.358796 255 0 0
0.180029 0.658697 -0.514327 255 0 0
0.235400 -0.160700 -0.462721 255 0 0
0.073757 0.669197 0.020044 127 127 0
0.416092 -0.201422 0.158246 255 0 0
0.380575 0.458787 0.277611 255 0 0
0.214422 -0.842720 -0.101406 255 0 0
-0.263063 0.268114 -0.453596 255 0 0
-0.249952 -0.689070 -0.043925 255 0 0
0.017390 -0.555133 -0.455256 255 0 0
0.474611 -0.152848 -0.124714 255 0 0
-0.335518 -0.381386 0.162686 255 0 0
0.216920 0.638467 0.064565 127 127 0
0.251547 -0.842720 0.214890 255 0 0
-0.108531 0.706178 0.201587 127 127 0
-0.454053 0.690098 -0.092631 127 127 0
-0.055014 -0.349543 0.360124 255 0 0
-0.262406 0.017938 0.792863 0 255 0
-0.123645 -0.252035 0.388382 255 0 0
-0.188372 0.669197 0.067571 127 127 0
-0.017461 -0.689070 -0.062745 255 0 0
-0.108065 -0.842720 0.059088 255 0 0
-0.176717 -0.592098 0.306082 255 0 0
-0.114969 0.303167 -0.528761 255 0 0
0.300919 -0.009088 -0.424574 255 0 0
-0.359557 0.229618 -0.357680 255 0 0
0.151889 -0.089880 -0.491686 255 0 0
0.120197 0.669197 0.035141 127 127 0
-0.117467 0.638467 -0.081340 127 127 0
0.538670 0.361362 0.021958 255 0 0
-0.221809 0.699447 -0.031225 127 127 0
0.436056 -0.313095 0.155680 255 0 0
-0.203212 -0.130087 0.710243 0 255 0
-0.302008 -0.705199 -0.290766 255 0 0
-0.402372 -0.523485 -0.121311 255 0 0
0.311169 0.638467 -0.217649 127 127 0
-0.269298 -0.737139 -0.331311 255 0 0
0.139494 -0.653517 0.296053 255 0 0
0.284366 -0.567318 -0.354887 255 0 0
0.335910 0.632247 0.303363 127 127 0
-0.057976 -0.622056 0.343361 255 0 0
-0.426333 -0.200345 -0.225361 255 0 0
0.329217 -0.689070 0.053503 255 0 0
0.482077 0.135186 -0.159016 255 0 0
0.092728 -0.842720 -0.123098 255 0 0
0.231664 -0.003107 0.360404 255 0 0
0.012299 0.708664 -0.111366 127 127 0
-0.194463 0.574370 -0.487314 255 0 0
-0.155208 -0.453183 0.309955 255 0 0
-0.390914 -0.497533 0.070718 255 0 0
-0.329001 -0.191906 0.217286 255 0 0
0.140477 0.414302 0.415941 255 0 0
-0.404738 -0.045485 0.119334 255 0 0
0.039223 -0.515713 0.340250 255 0 0
-0.112699 0.703800 -0.303533 127 127 0
-0.386443 0.162787 0.189887 255 0 0
0.073598 -0.842720 -0.261931 255 0 0
0.434350 -0.460515 -0.094962 255 0 0
-0.260621 0.401127 0.784943 0 255 0
0.237115 0.669197 -0.344557 127 127 0
0.087182 -0.167664 -0.509482 255 0 0
-0.139780 -0.157581 -0.517284 255 0 0
-0.052953 -0.067959 0.427476 255 0 0
-0.238216 0.509330 0.846735 0 255 0
0.471507 0.540131 -0.273983 255 0 0
-0.477312 0.254179 0.062634 255 0 0
0.082995 -0.649155 -0.464122 255 0 0
-0.255416 0.019605 0.318338 255 0 0
-0.056472 -0.479941 0.338737 255 0 0
-0.401969 0.039212 0.143540 255 0 0
0.541497 0.660966 0.013534 255 0 0
0.524087 0.730657 -0.031112 127 127 0
-0.021373 -0.129782 -0.515722 255 0 0
0.441583 -0.247804 -0.167736 255 0 0
0.456723 0.415596 -0.293794 255 0 0
0.109390 0.669197 -0.111700 127 127 0
0.410233 0.362856 -0.363195 255 0 0
-0.309846 0.152001 -0.448419 255 0 0
-0.002611 -0.453386 0.381481 255 0 0
-0.104103 0.562922 -0.522662 255 0 0
-0.339246 0.107247 0.249149 255 0 0
0.160591 0.559351 0.398607 255 0 0
0.442710 -0.103459 0.195984 255 0 0
0.504011 0.212589 0.127312 255 0 0
-0.330503 -0.281812 0.246203 255 0 0
-0.013341 0.203592 -0.543365 255 0 0
0.381784 0.229619 -0.389473 255 0 0
-0.114897 0.240655 0.436322 255 0 0
0.221408 0.701945 -0.334289 127 127 0
0.495087 0.508292 0.081254 255 0 0
-0.036158 -0.689070 0.072019 255 0 0
0.046817 0.696762 -0.058584 127 127 0
-0.094849 -0.189226 -0.527115 255 0 0
0.417893 0.693781 0.261471 127 127 0
0.471456 -0.177211 0.006179 255 0 0
0.314693 0.690763 -0.442416 255 0 0
-0.203485 -0.645212 -0.360959 255 0 0
-0.532770 0.693781 -0.121417 127 127 0
0.413896 -0.842720 -0.034797 255 0 0
0.242721 0.277555 -0.530645 255 0 0
0.136343 0.693781 -0.542242 127 127 0
-0.433459 0.542774 0.079683 255 0 0
0.326965 -0.434638 0.267413 255 0 0
-0.307438 -0.340699 -0.314141 255 0 0
0.149431 -0.689070 -0.326059 255 0 0
-0.392181 -0.385871 0.012529 255 0 0
0.476216 0.478535 -0.255134 255 0 0
0.444772 -0.059232 0.201095 255 0 0
0.159372 -0.689070 -0.260572 255 0 0
0.115257 0.322900 -0.541293 255 0 0
0.153928 0.638467 -0.246182 127 127 0
0.173471 0.290303 0.435565 255 0 0
0.279980 -0.493813 -0.415129 255 0 0
-0.191940 -0.322740 -0.470863 255 0 0
0.448832 -0.144478 0.176624 255 0 0
0.316945 -0.722269 -0.333004 255 0 0
0.188928 0.504061 -0.556560 255 0 0
-0.053700 -0.054560 -0.550565 255 0 0
0.013823 0.067945 -0.566997 255 0 0
-0.144427 -0.405868 -0.445551 255 0 0
-0.098440 -0.781124 -0.440856 255 0 0
0.500532 0.180523 0.019313 255 0 0
0.412000 -0.015376 0.253850 255 0 0
-0.193914 0.635305 0.365672 127 127 0
-0.271497 -0.195974 -0.382362 255 0 0
0.066202 -0.329252 -0.521843 255 0 0
0.442764 -0.391686 -0.120330 255 0 0
0.498322 0.287056 -0.098913 255 0 0
-0.357575 0.161024 0.280178 255 0 0
-0.174703 0.718421 -0.543673 127 127 0
-0.054348 0.708169 -0.361810 127 127 0
0.530479 0.125462 0.005324 255 0 0
-0.025235 0.687747 -0.183424 127 127 0
-0.051662 0.487129 0.696467 0 255 0
-0.347073 -0.441384 0.121828 255 0 0
-0.381851 0.028342 -0.301904 255 0 0
0.365648 -0.674757 0.152175 255 0 0
-0.472560 -0.023595 -0.025697 255 0 0
-0.329279 0.009253 0.230067 255 0 0
0.448260 0.502618 -0.310419 255 0 0
-0.051374 0.685401 -0.005072 127 127 0
-0.488720 0.625134 0.034501 255 0 0
0.458728 0.012022 -0.312727 255 0 0
0.447508 0.179415 0.171216 255 0 0
-0.178418 0.419719 -0.507963 255 0 0
-0.335184 0.475489 -0.377523 255 0 0
0.247884 -0.504074 -0.434218 255 0 0
0.204693 -0.281384 0.338843 255 0 0
-0.206143 0.638467 -0.097170 127 127 0
0.404063 -0.639660 -0.214162 255 0 0
-0.320306 0.320706 -0.407501 255 0 0
-0.317397 0.566780 -0.455753 255 0 0
0.489226 0.134165 -0.114397 255 0 0
-0.203950 0.669197 -0.394374 127 127 0
0.398658 -0.428354 -0.243861 255 0 0
0.156014 -0.179471 0.403341 255 0 0
0.080696 -0.007776 0.435730 255 0 0
0.516870 -0.058263 -0.115922 255 0 0
0.229739 -0.440923 0.334429 255 0 0
-0.146278 -0.142112 0.718359 0 255 0
-0.204591 -0.296138 0.346315 255 0 0
-0.413933 -0.075088 0.042434 255 0 0
-0.367787 -0.542548 -0.003384 255 0 0
-0.485788 0.446478 0.049030 255 0 0
0.165379 -0.814425 0.312709 255 0 0
-0.317093 -0.842720 0.125764 255 0 0
-0.355961 -0.624919 -0.046033 255 0 0
0.481337 0.049404 0.005841 255 0 0
-0.472639 0.540131 -0.045221 255 0 0
0.404968 0.168745 -0.357146 255 0 0
-0.414258 0.446754 0.131185 255 0 0
-0.328049 -0.002384 -0.371211 255 0 0
0.510980 0.343262 0.123482 255 0 0
0.406855 -0.806807 0.054809 255 0 0
-0.045326 0.687632 0.049170 127 127 0
-0.242775 -0.117385 -0.417918 255 0 0
0.545708 0.678407 -0.027572 127 127 0
-0.085642 -0.217323 -0.493830 255 0 0
0.021395 0.714309 0.099774 127 127 0
-0.496009 0.433074 -0.096965 255 0 0
0.514813 0.549704 -0.241282 255 0 0
0.370647 -0.517864 0.141933 255 0 0
-0.237321 0.382561 0.847070 0 255 0
0.128187 -0.450222 0.338510 255 0 0
0.406950 -0.678961 -0.182998 255 0 0
-0.313243 0.510803 -0.417802 255 0 0
0.515153 -0.105077 -0.070080 255 0 0
0.353046 -0.842720 -0.197344 255 0 0
-0.235965 0.669197 0.205302 127 127 0
0.511179 0.624569 0.128537 255 0 0
0.021913 -0.057461 -0.525497 255 0 0
-0.254688 0.669197 -0.345695 127 127 0
0.234443 -0.501602 -0.391493 255 0 0
-0.079584 -0.249185 0.369222 255 0 0
0.329419 0.234559 -0.477597 255 0 0
0.052472 0.638467 -0.488548 127 127 0
0.218700 0.730657 -0.496623 127 127 0
-0.088738 -0.583832 0.424337 0 255 0
-0.089610 -0.689070 0.028473 255 0 0
-0.261905 0.202743 0.841375 0 255 0
-0.221606 0.097795 -0.505524 255 0 0
-0.306244 0.224615 0.293542 255 0 0
0.277978 0.055609 0.339936 255 0 0
0.229544 -0.842720 -0.170638 255 0 0
-0.386090 -0.426836 -0.130924 255 0 0
0.292563 0.492822 0.387245 255 0 0
-0.191246 0.730657 -0.487470 127 127 0
0.383047 0.376558 -0.395170 255 0 0
-0.113142 -0.275524 -0.510650 255 0 0
-0.078460 0.638467 -0.172322 127 127 0
-0.400522 0.342755 -0.303437 255 0 0
-0.411820 -0.494621 -0.057484 255 0 0
0.045398 -0.664141 -0.433390 255 0 0
0.397959 0.317856 0.254189 255 0 0
-0.002738 -0.471822 0.468297 0 255 0
-0.193956 -0.116182 0.376885 255 0 0
-0.172889 -0.131636 0.350808 255 0 0
-0.369621 0.313657 -0.328296 255 0 0
0.167700 -0.665927 0.269591 255 0 0
-0.347702 -0.386780 -0.321270 255 0 0
0.130087 -0.842720 0.142059 255 0 0
0.364097 -0.349594 -0.322944 255 0 0
-0.001491 -0.179531 -0.511698 255 0 0
0.429558 0.251654 0.208078 255 0 0
-0.074688 -0.059147 -0.514790 255 0 0
0.232362 0.342162 -0.504078 255 0 0
-0.033815 0.116127 -0.567156 255 0 0
-0.067387 -0.512113 0.363389 0 255 0
0.520401 -0.052340 -0.048067 255 0 0
-0.315330 -0.147525 -0.408326 255 0 0
-0.253436 -0.842720 0.203581 255 0 0
-0.011775 -0.842720 0.310967 255 0 0
0.295248 0.663013 0.385658 255 0 0
0.475250 -0.028613 -0.122572 255 0 0
0.490564 0.601123 0.051052 255 0 0
0.347675 -0.509667 -0.350533 255 0 0
0.498112 0.477761 -0.280839 255 0 0
-0.041539 0.540131 -0.566522 255 0 0
-0.320507 0.234473 -0.402591 255 0 0
-0.079603 0.693781 -0.568497 255 0 0
0.019938 0.685607 -0.160258 127 127 0
-0.434596 0.568900 -0.309552 255 0 0
-0.385098 -0.621876 -0.110742 255 0 0
-0.450134 0.159843 -0.141215 255 0 0
0.415206 -0.476220 0.058793 255 0 0
0.312869 0.703838 0.098250 127 127 0
0.384195 0.689306 -0.184378 127 127 0
-0.162016 -0.546169 0.347630 0 255 0
0.009245 0.669197 0.292590 127 127 0
-0.260971 -0.017007 0.310163 255 0 0
0.397212 -0.529600 -0.203465 255 0 0
-0.239163 0.647825 0.389807 255 0 0
0.081234 0.725124 -0.179883 127 127 0
-0.139249 0.354330 0.774679 0 255 0
-0.293958 -0.424493 -0.376206 255 0 0
0.467757 -0.085516 0.069494 255 0 0
0.182060 -0.496072 -0.467795 255 0 0
-0.164257 -0.124703 -0.477700 255 0 0
0.444484 -0.202283 0.097110 255 0 0
0.400540 -0.310180 0.156667 255 0 0
-0.002363 0.636947 -0.539397 127 127 0
0.139347 -0.076474 0.419141 255 0 0
0.154148 0.638467 0.059187 127 127 0
0.250519 -0.364386 -0.458848 255 0 0
0.438665 0.342623 -0.298193 255 0 0
-0.037765 -0.262557 -0.497551 255 0 0
-0.409695 0.727060 0.228861 127 127 0
-0.356108 -0.275313 -0.337014 255 0 0
-0.342394 0.677232 -0.273094 127 127 0
0.020542 0.371815 -0.550950 255 0 0
0.035889 0.525737 -0.583105 255 0 0
-0.334229 -0.506644 0.183841 255 0 0
-0.245021 -0.201145 0.773459 0 255 0
-0.103429 -0.180810 -0.493884 255 0 0
0.236145 -0.316160 0.352711 255 0 0
0.503758 0.571592 -0.049606 255 0 0
-0.209721 0.694642 -0.336690 127 127 0
-0.229426 -0.451043 -0.386262 255 0 0
-0.373609 -0.344488 0.099422 255 0 0
0.493685 -0.007476 -0.071805 255 0 0
-0.090524 -0.646954 -0.452257 255 0 0
-0.127282 0.437815 0.871882 0 255 0
0.479157 0.190357 0.061578 255 0 0
-0.273912 0.140996 -0.437382 255 0 0
0.492127 0.358298 -0.289765 255 0 0
-0.420058 0.092417 -0.196094 255 0 0
0.454771 0.280587 0.167856 255 0 0
-0.224285 0.152567 -0.472651 255 0 0
-0.038195 0.545272 0.414019 255 0 0
-0.175590 0.019297 0.399951 255 0 0
-0.447621 0.365024 -0.191206 255 0 0
0.113859 -0.503087 -0.454892 255 0 0
0.275270 -0.129067 -0.443181 255 0 0
0.511241 0.337780 -0.009057 255 0 0
0.451490 -0.186346 -0.284073 255 0 0
-0.452133 0.107632 -0.096863 255 0 0
-0.182471 0.254980 -0.534849 255 0 0
0.174235 0.406148 0.438534 255 0 0
-0.035861 0.638467 0.014362 127 127 0
0.486384 0.056913 0.144220 255 0 0
-0.381998 -0.151549 -0.326223 255 0 0
0.173693 -0.689070 0.135840 255 0 0
-0.285086 -0.228241 0.258963 255 0 0
-0.243190 -0.275967 0.707639 0 255 0
-0.262462 0.730337 0.375233 127 127 0
-0.297259 0.629556 -0.472349 255 0 0
-0.297941 -0.689070 0.076101 255 0 0
0.364163 0.669197 0.045437 127 127 0
-0.225456 -0.189755 0.678020 0 255 0
-0.360211 -0.229752 0.219204 255 0 0
0.028489 0.492344 -0.540052 255 0 0
-0.339330 -0.552072 -0.214166 255 0 0
0.333763 -0.079102 0.283053 255 0 0
0.481343 0.730458 -0.169194 127 127 0
0.205221 0.638467 0.097276 127 127 0
0.388591 -0.536463 0.099464 255 0 0
0.385909 0.691420 -0.378177 127 127 0
0.220947 -0.526986 0.286799 255 0 0
-0.402536 0.049831 -0.235833 255 0 0
0.400617 -0.753163 0.073888 255 0 0
-0.447102 0.249244 -0.106687 255 0 0
-0.346734 -0.105538 0.259572 255 0 0
0.079431 0.148596 0.404227 255 0 0
0.250541 -0.090026 -0.463154 255 0 0
-0.158897 0.638467 -0.237705 127 127 0
0.459872 0.203817 0.213470 255 0 0
0.169564 -0.483349 0.319631 255 0 0
-0.411286 0.205573 -0.271104 255 0 0
0.290652 -0.296732 -0.406924 255 0 0
-0.015003 0.670324 0.361009 127 127 0
0.438933 0.045500 0.168317 255 0 0
0.040674 -0.420907 -0.478332 255 0 0
0.495671 0.322574 0.069644 255 0 0
0.104929 0.642751 -0.533493 127 127 0
0.009553 -0.689070 0.144750 255 0 0
0.414002 0.682629 0.028147 127 127 0
0.467032 -0.458819 -0.047620 255 0 0
-0.002077 -0.458814 -0.458974 255 0 0
0.035969 0.229598 -0.546200 255 0 0
-0.110348 -0.135701 0.830177 0 255 0
0.171190 -0.232229 0.359048 255 0 0
-0.257633 0.153113 0.313234 255 0 0
-0.331865 -0.098624 0.230218 255 0 0
-0.265391 -0.842720 -0.294216 255 0 0
0.439346 -0.530461 0.052525 255 0 0
0.045663 -0.617734 -0.430111 255 0 0
-0.267818 0.638467 0.088688 127 127 0
-0.100081 0.669197 -0.013055 127 127 0
-0.374884 0.540131 -0.366622 255 0 0
-0.285302 -0.507105 0.196528 255 0 0
0.408914 -0.443341 -0.214578 255 0 0
-0.311942 0.692551 -0.212343 127 127 0
0.476250 -0.402548 -0.066538 255 0 0
-0.215897 -0.298193 0.302768 255 0 0
-0.279575 -0.689070 0.189865 255 0 0
0.105331 0.028147 -0.526405 255 0 0
0.486244 0.328303 0.100555 255 0 0
-0.010294 0.601297 -0.538913 255 0 0
0.384815 -0.043047 -0.336761 255 0 0
0.126307 -0.698788 0.325142 255 0 0
-0.187167 -0.541398 0.472319 0 255 0
-0.050846 0.698237 -0.287247 127 127 0
-0.487508 0.309006 0.023826 255 0 0
-0.083319 0.638467 -0.326705 127 127 0
-0.376111 -0.312805 -0.227535 255 0 0
0.359609 0.638467 0.095165 127 127 0
0.174237 0.638467 0.293764 127 127 0
0.148918 0.552561 0.446165 255 0 0
0.309317 -0.687906 -0.341499 255 0 0
0.331618 -0.313409 -0.410319 255 0 0
0.068945 0.638467 -0.329676 127 127 0
0.410198 0.207746 -0.353788 255 0 0
0.269506 0.638467 0.152451 127 127 0
0.351613 0.407983 0.345137 255 0 0
0.377578 -0.527241 0.185673 255 0 0
0.214149 -0.323090 -0.484045 255 0 0
0.346691 0.226801 0.342002 255 0 0
-0.545059 0.717028 -0.139161 127 127 0
0.477077 0.271780 -0.312383 255 0 0
0.438928 0.210435 -0.366814 255 0 0
-0.337991 0.188329 -0.380269 255 0 0
-0.239644 -0.087736 0.354471 255 0 0
0.147868 0.544153 -0.524044 255 0 0
-0.373886 0.105051 0.202955 255 0 0
-0.042289 0.354339 0.424024 255 0 0
0.000329 -0.790266 -0.459554 255 0 0
-0.302788 0.726837 -0.375379 127 127 0
0.341184 -0.363795 0.224992 255 0 0
-0.114858 0.156747 -0.521616 255 0 0
0.005652 -0.842720 -0.106857 255 0 0
-0.232569 0.540131 -0.496185 255 0 0
-0.196354 -0.842720 -0.091724 255 0 0
-0.447000 0.730657 -0.004801 127 127 0
-0.107880 -0.630090 0.328171 255 0 0
-0.208678 -0.035715 0.378263 255 0 0
-0.452671 -0.219922 -0.055651 255 0 0
-0.355155 -0.213415 -0.351654 255 0 0
-0.316187 0.693781 0.294495 255 0 0
-0.440620 0.649863 0.176518 255 0 0
-0.284282 0.094618 0.342366 255 0 0
0.424417 0.148375 -0.305211 255 0 0
0.018065 0.182872 0.421623 255 0 0
0.533549 0.644090 -0.178399 255 0 0
0.446153 -0.280503 -0.268159 255 0 0
0.266396 0.669197 -0.138104 127 127 0
-0.193043 -0.009944 0.748821 0 255 0
0.064536 -0.842720 0.066384 255 0 0
-0.204511 -0.316470 -0.428867 255 0 0
-0.465979 -0.053848 -0.132078 255 0 0
-0.281883 -0.355885 0.237367 255 0 0
-0.198713 0.466751 0.599941 0 255 0
0.423840 -0.737902 -0.074478 255 0 0
0.535542 0.460086 0.046325 255 0 0
-0.264596 0.669197 0.246116 127 127 0
-0.334256 0.308691 0.313897 255 0 0
-0.102390 -0.318837 -0.507541 255 0 0
-0.399740 -0.367361 -0.100059 255 0 0
-0.445779 0.730657 -0.277004 127 127 0
-0.427877 0.064478 -0.205244 255 0 0
-0.095654 0.060172 0.398117 255 0 0
-0.355319 -0.550772 -0.254625 255 0 0
-0.421774 -0.212931 -0.088007 255 0 0
-0.454603 0.098842 0.108846 255 0 0
-0.207968 -0.266276 -0.435031 255 0 0
-0.181775 -0.529564 0.435260 0 255 0
-0.174217 0.669197 -0.285596 127 127 0
0.330937 -0.008775 -0.416158 255 0 0
0.113962 0.093032 0.407572 255 0 0
0.171126 0.422767 0.407600 255 0 0
0.332544 -0.662474 -0.272229 255 0 0
0.177389 -0.037413 -0.501660 255 0 0
-0.369542 -0.555533 -0.061729 255 0 0
-0.220616 -0.779652 0.254344 255 0 0
0.203637 -0.014398 -0.493898 255 0 0
-0.240509 -0.689070 -0.233448 255 0 0
0.468757 -0.235366 -0.078372 255 0 0
0.191142 -0.689070 -0.166123 255 0 0
0.314234 0.384183 -0.456488 255 0 0
-0.224362 0.025729 0.375973 255 0 0
-0.341287 0.193079 0.254767 255 0 0
-0.079859 0.418441 0.779069 0 255 0
0.409810 -0.558930 0.020001 255 0 0
0.030328 0.669197 -0.430664 127 127 0
-0.448256 0.665267 0.017043 127 127 0
-0.397557 -0.571703 -0.078815 255 0 0
-0.450428 0.077656 -0.032827 255 0 0
0.436918 -0.326364 -0.138614 255 0 0
-0.375996 -0.476440 -0.140529 255 0 0
-0.317077 0.517314 0.333901 255 0 0
0.186787 -0.102779 -0.524306 255 0 0
-0.083034 -0.211256 0.373302 255 0 0
-0.152303 0.296055 0.771736 0 255 0
-0.440442 0.186406 0.156918 255 0 0
-0.052380 -0.262595 0.699650 0 255 0
0.540058 0.242061 -0.093744 255 0 0
-0.195689 0.313374 0.409079 255 0 0
0.198046 -0.621262 0.279012 255 0 0
0.480361 0.623587 -0.208962 255 0 0
-0.423370 -0.019517 0.021938 255 0 0
-0.144083 -0.689070 0.182055 255 0 0
-0.157295 0.669197 0.280722 127 127 0
0.006777 0.693793 -0.261791 127 127 0
0.424951 -0.513990 -0.026664 255 0 0
0.257447 -0.689070 0.155017 255 0 0
0.187024 0.081122 0.373538 255 0 0
-0.438250 0.169237 0.073725 255 0 0
0.073537 0.143329 -0.539111 255 0 0
0.197695 -0.249637 -0.501760 255 0 0
-0.183348 -0.033667 0.842841 0 255 0
-0.415981 0.252452 -0.235298 255 0 0
-0.337242 -0.689070 0.042664 255 0 0
0.079802 0.722534 -0.503207 127 127 0
-0.339754 0.359063 0.266294 255 0 0
-0.113359 0.690427 -0.154473 127 127 0
-0.137941 -0.566494 0.447935 0 255 0
0.513946 0.504734 0.121395 255 0 0
0.282293 0.669197 -0.227403 127 127 0
0.019542 0.394138 0.460093 255 0 0
-0.050066 0.669197 0.296890 127 127 0
0.235914 -0.842720 -0.235616 255 0 0
-0.040336 0.575119 0.413744 255 0 0
-0.035031 0.709421 0.066869 127 127 0
-0.225253 0.693781 -0.481969 127 127 0
0.210021 -0.032194 -0.522810 255 0 0
0.368494 -0.204755 0.272837 255 0 0
-0.222196 -0.634446 0.209803 255 0 0
-0.439457 0.692691 -0.191103 127 127 0
0.012828 -0.081698 0.432034 255 0 0
-0.254702 -0.246977 0.321767 255 0 0
0.377549 -0.435810 0.212295 255 0 0
-0.026672 -0.510619 -0.460039 255 0 0
0.239329 -0.620358 -0.376800 255 0 0
0.340482 -0.634616 0.148309 255 0 0
-0.446406 0.043215 -0.109450 255 0 0
0.064057 -0.689070 -0.399411 255 0 0
-0.333344 0.638467 -0.364457 255 0 0
-0.372757 -0.382592 0.045189 255 0 0
-0.442545 -0.144425 -0.196517 255 0 0
0.240450 -0.143159 0.340095 255 0 0
0.223887 -0.367541 -0.472310 255 0 0
-0.054121 0.669197 -0.219122 127 127 0
-0.336305 0.398721 -0.393155 255 0 0
0.502188 0.666648 -0.101655 127 127 0
-0.366038 -0.148284 -0.294436 255 0 0
-0.184589 0.514362 0.383623 255 0 0
-0.121827 0.670785 -0.432466 127 127 0
-0.022788 0.709612 0.030134 127 127 0
-0.330815 0.696308 -0.039625 127 127 0
0.212672 -0.732779 0.291265 255 0 0
0.124898 0.669197 0.307019 127 127 0
0.101669 0.669197 0.120537 127 127 0
-0.140167 0.513542 -0.524157 255 0 0
-0.121425 0.376837 0.406815 255 0 0
0.222053 0.260440 -0.492108 255 0 0
0.064440 -0.523595 -0.490507 255 0 0
0.332862 -0.234336 0.259320 255 0 0
0.491736 -0.164672 -0.188052 255 0 0
-0.398458 0.123519 -0.286225 255 0 0
0.135771 0.301882 0.445891 255 0 0
-0.059808 -0.742806 -0.451407 255 0 0
0.347163 -0.578654 0.158518 255 0 0
-0.225146 0.363541 -0.482538 255 0 0
0.393531 0.638467 -0.144142 127 127 0
-0.204747 -0.360202 -0.457661 255 0 0
0.521294 -0.006772 -0.003525 255 0 0
-0.052991 -0.389343 0.561980 0 255 0
0.172343 -0.018794 0.370139 255 0 0
-0.442678 -0.000623 -0.012943 255 0 0
-0.057584 0.435420 0.423390 0 255 0
-0.237694 0.144803 0.752482 0 255 0
0.478403 0.162683 -0.222732 255 0 0
0.324109 0.190710 -0.440219 255 0 0
-0.050595 0.462166 0.608959 0 255 0
0.144664 -0.612186 -0.425059 255 0 0
0.541196 0.398236 -0.130380 255 0 0
-0.059065 -0.462404 -0.463180 255 0 0
0.304167 -0.079218 0.345656 255 0 0
0.090852 -0.625087 -0.436002 255 0 0
0.522098 0.219688 -0.196126 255 0 0
0.485400 0.705459 -0.306864 127 127 0
0.384311 0.695258 -0.063197 127 127 0
-0.374663 -0.705861 -0.063630 255 0 0
-0.193620 -0.726483 -0.395422 255 0 0
-0.015070 -0.382030 0.361155 255 0 0
-0.052143 0.531629 0.636106 0 255 0
-0.089003 0.275130 0.862074 0 255 0
-0.172030 0.143675 0.861792 0 255 0
0.392014 -0.810702 0.095700 255 0 0
-0.471148 0.206696 -0.199712 255 0 0
-0.370850 0.548856 0.209813 255 0 0
0.459009 0.723538 0.044676 127 127 0
0.441389 -0.366889 -0.150173 255 0 0
-0.419410 -0.310547 0.078042 255 0 0
0.298455 0.039401 0.362024 255 0 0
-0.168313 0.570057 -0.546203 255 0 0
0.182630 0.187694 -0.504452 255 0 0
0.386468 0.025922 0.288308 255 0 0
0.407617 -0.603248 -0.019783 255 0 0
0.297199 -0.842720 -0.017784 255 0 0
-0.269093 -0.708460 0.209506 255 0 0
0.487985 0.366031 -0.220095 255 0 0
-0.246396 -0.842720 -0.041057 255 0 0
0.180193 0.703251 -0.459572 127 127 0
0.254794 -0.267865 -0.436356 255 0 0
0.366457 -0.291348 -0.380741 255 0 0
-0.038057 -0.090524 0.395935 255 0 0
0.448214 0.668974 -0.285118 127 127 0
0.010799 0.672183 -0.484642 127 127 0
-0.215602 0.713853 -0.423878 127 127 0
0.261872 0.272699 -0.472131 255 0 0
0.045424 0.638467 -0.458965 127 127 0
-0.276346 0.638467 -0.359134 127 127 0
-0.260762 0.667627 -0.445930 127 127 0
-0.433656 -0.117480 -0.050291 255 0 0
-0.108004 -0.689070 0.170173 255 0 0
-0.359822 0.528645 0.292327 255 0 0
0.498046 0.376943 0.065614 255 0 0
0.079706 0.638467 -0.008168 127 127 0
0.361606 -0.664137 0.098809 255 0 0
0.456749 0.631507 -0.354523 255 0 0
-0.160592 0.600879 0.427271 255 0 0
-0.461712 0.152988 0.098256 255 0 0
-0.094171 -0.661503 0.293093 255 0 0
0.406201 -0.150332 -0.361507 255 0 0
0.261265 -0.332472 -0.458153 255 0 0
0.303855 -0.483176 0.277045 255 0 0
0.213849 -0.385251 0.352183 255 0 0
-0.120361 0.669197 0.282732 127 127 0
0.013902 -0.575638 0.405689 0 255 0
-0.316227 0.381775 -0.455041 255 0 0
-0.450405 0.165659 0.019308 255 0 0
0.214578 -0.026588 0.366046 255 0 0
-0.201892 0.669197 -0.007957 127 127 0
0.296186 -0.358066 0.308305 255 0 0
0.019126 -0.414473 0.357535 255 0 0
0.455656 -0.063570 0.110602 255 0 0
0.415311 -0.145242 0.173019 255 0 0
-0.386459 0.667090 -0.383287 255 0 0
-0.466543 0.510007 -0.042596 255 0 0
0.083339 0.693781 -0.552008 255 0 0
0.447199 -0.026129 -0.229717 255 0 0
-0.013544 -0.842720 0.257917 255 0 0
0.135799 -0.020270 0.425322 255 0 0
-0.364500 0.250153 0.230331 255 0 0
-0.079981 0.336131 0.789279 0 255 0
-0.459788 0.540131 0.043683 255 0 0
0.386480 -0.361275 -0.341950 255 0 0
0.106465 0.638467 -0.375236 127 127 0
-0.200943 0.446479 -0.497561 255 0 0
0.417830 0.729550 -0.304787 127 127 0
-0.007003 -0.689070 -0.436658 255 0 0
0.432866 -0.036606 -0.286524 255 0 0
-0.317605 -0.251448 0.199445 255 0 0
-0.416094 0.047365 0.184498 255 0 0
-0.014849 0.717422 0.201827 127 127 0
0.375873 -0.060792 -0.410148 255 0 0
-0.446807 0.466317 -0.285150 255 0 0
0.480833 -0.112709 -0.011635 255 0 0
0.365631 0.712195 -0.456480 127 127 0
0.543643 0.576289 -0.118561 255 0 0
0.130464 0.669197 -0.243942 127 127 0
-0.427783 0.372116 0.127316 255 0 0
-0.357543 0.693244 0.122554 127 127 0
-0.451462 0.651670 -0.115490 255 0 0
0.415695 -0.663459 0.042041 255 0 0
-0.297910 0.001099 0.280613 255 0 0
-0.349071 -0.558462 0.062730 255 0 0
-0.380265 0.163289 -0.321694 255 0 0
-0.111124 0.483602 -0.565132 255 0 0
-0.310124 -0.066695 -0.381825 255 0 0
0.229424 0.105375 0.404823 255 0 0
-0.261971 0.159919 0.790931 0 255 0
-0.345896 -0.265470 0.153812 255 0 0
-0.032013 0.286488 -0.545111 255 0 0
-0.154597 -0.194653 -0.506831 255 0 0
-0.205844 -0.417894 0.631778 0 255 0
-0.212471 -0.294565 -0.464283 255 0 0
-0.140430 0.638467 -0.434742 127 127 0
0.289620 -0.670356 0.242874 255 0 0
-0.350908 0.690632 -0.064002 127 127 0
0.443345 0.579871 0.171944 255 0 0
-0.404943 -0.140361 0.048923 255 0 0
0.518398 0.723763 0.109003 127 127 0
0.318850 -0.550209 -0.324881 255 0 0
0.170062 0.014573 0.374067 255 0 0
-0.039813 0.695244 0.156272 127 127 0
-0.466308 0.459570 -0.040384 255 0 0
-0.073772 -0.842720 0.259911 255 0 0
0.285901 0.669197 0.007645 127 127 0
0.032736 -0.607653 0.323257 255 0 0
-0.464417 0.703141 -0.244061 127 127 0
-0.220786 -0.347459 -0.412817 255 0 0
-0.410733 -0.257657 0.013030 255 0 0
-0.092724 0.691535 0.073047 127 127 0
0.486314 0.729471 -0.080682 127 127 0
0.166951 0.086549 0.426170 255 0 0
0.486437 0.623455 -0.304796 255 0 0
0.098352 -0.101869 0.393168 255 0 0
0.008071 0.669197 0.335275 127 127 0
0.197851 0.669197 0.301733 127 127 0
-0.053964 -0.689070 0.152744 255 0 0
0.302686 -0.510706 -0.393604 255 0 0
0.179383 -0.115129 0.370845 255 0 0
-0.090643 -0.842720 -0.239423 255 0 0
-0.360373 0.068648 -0.389456 255 0 0
-0.003811 0.742296 0.009030 127 127 0
-0.151689 -0.210135 0.683806 0 255 0
-0.372548 -0.262934 -0.315707 255 0 0
-0.387957 -0.248238 0.099587 255 0 0
0.137700 0.592475 -0.526675 255 0 0
-0.072347 -0.102380 -0.542166 255 0 0
-0.319575 0.669197 0.024308 127 127 0
0.348825 -0.625400 -0.260611 255 0 0
0.275910 0.727319 0.318369 127 127 0
0.063028 0.300931 -0.547477 255 0 0
-0.282364 0.427800 0.322352 255 0 0
-0.009579 -0.484504 0.509827 0 255 0
-0.391140 0.651242 -0.299293 255 0 0
0.147801 0.331929 -0.566089 255 0 0
0.412312 0.197679 0.227880 255 0 0
-0.295776 -0.349563 0.268610 255 0 0
-0.403984 -0.206322 0.069750 255 0 0
0.279370 -0.367034 0.265062 255 0 0
0.298519 0.638467 -0.422385 127 127 0
0.271102 0.540131 0.374523 255 0 0
0.476039 -0.007914 -0.188830 255 0 0
0.234486 0.423722 0.382856 255 0 0
-0.266815 -0.055695 -0.422926 255 0 0
0.162623 -0.146797 0.405111 255 0 0
0.164712 -0.842720 -0.111706 255 0 0
0.508572 -0.158728 -0.087564 255 0 0
0.000633 0.502131 0.417525 255 0 0
0.437594 0.487458 -0.380757 255 0 0
-0.030119 -0.654795 -0.463464 255 0 0
-0.016691 0.128692 0.416947 255 0 0
0.223082 -0.689070 -0.327251 255 0 0
0.463863 0.030227 0.184571 255 0 0
0.251372 0.072297 0.356954 255 0 0
-0.187585 0.669197 0.116521 127 127 0
0.449253 0.701603 -0.105696 127 127 0
0.377080 -0.326369 -0.361315 255 0 0
-0.283795 0.570191 -0.482341 255 0 0
-0.075265 -0.490242 -0.486752 255 0 0
-0.368577 -0.789716 -0.130724 255 0 0
-0.447297 0.547890 0.162465 255 0 0
0.228165 -0.838458 -0.404733 255 0 0
0.098398 -0.842720 0.024599 255 0 0
0.148900 -0.658200 -0.413999 255 0 0
0.506455 0.305439 0.018193 255 0 0
-0.232615 0.593016 0.393423 255 0 0
-0.241552 -0.789961 -0.358770 255 0 0
-0.395211 -0.573771 -0.016849 255 0 0
-0.130118 -0.591764 0.328098 255 0 0
-0.474990 0.596968 -0.213124 255 0 0
0.353511 -0.527980 0.165468 255 0 0
0.065751 0.638467 0.046361 127 127 0
-0.367683 -0.467469 0.058004 255 0 0
-0.258350 -0.142152 0.789898 0 255 0
0.430364 0.205164 -0.324710 255 0 0
0.322521 0.669197 -0.344742 127 127 0
0.419012 0.208619 -0.391940 255 0 0
-0.186445 0.357092 0.380825 255 0 0
0.459711 0.515639 0.167621 255 0 0
0.453132 0.628369 0.237585 255 0 0
0.364793 0.177376 -0.385395 255 0 0
0.366745 -0.122247 -0.346180 255 0 0
-0.270622 -0.453679 0.226687 255 0 0
-0.197206 -0.464080 0.503700 0 255 0
0.080206 -0.499292 0.371033 255 0 0
-0.297428 -0.842720 -0.253773 255 0 0
-0.296243 0.470748 -0.433207 255 0 0
-0.408616 -0.460553 0.027540 255 0 0
-0.170916 -0.292440 0.364113 255 0 0
0.057342 0.055398 -0.564997 255 0 0
-0.019934 0.669197 -0.128466 127 127 0
0.275412 0.243755 -0.477238 255 0 0
0.348683 0.410761 -0.469677 255 0 0
0.087328 0.638467 0.209936 127 127 0
-0.460636 -0.141519 -0.096456 255 0 0
0.105701 -0.800641 -0.452017 255 0 0
0.005338 -0.173914 -0.543734 255 0 0
-0.415205 -0.060854 0.166447 255 0 0
0.330823 0.669197 0.198070 127 127 0
0.256743 -0.130134 -0.490033 255 0 0
-0.332754 0.497665 -0.441574 255 0 0
0.293051 0.703969 0.128873 127 127 0
-0.270125 -0.030694 0.340119 255 0 0
-0.118988 0.669197 -0.213493 127 127 0
0.535834 0.142815 -0.074197 255 0 0
0.407945 -0.503510 -0.187387 255 0 0
-0.467513 0.616444 -0.235990 255 0 0
-0.449110 0.261140 -0.039701 255 0 0
0.503317 0.115925 -0.063223 255 0 0
0.386151 -0.717048 0.108517 255 0 0
0.520379 0.108490 0.054738 255 0 0
-0.194948 -0.085728 -0.467176 255 0 0
-0.290885 -0.689070 -0.046681 255 0 0
-0.152615 -0.411941 0.318625 255 0 0
0.345221 -0.229174 -0.369903 255 0 0
0.464698 0.233536 0.112724 255 0 0
0.132307 -0.110137 0.417174 255 0 0
0.362764 0.537561 -0.458916 255 0 0
0.296252 0.204569 0.339669 255 0 0
0.140265 -0.595267 0.294872 255 0 0
-0.424373 0.624360 0.205918 255 0 0
0.381320 -0.410238 -0.281335 255 0 0
0.113080 -0.004467 0.387347 255 0 0
-0.167494 0.137031 0.412372 255 0 0
-0.460213 -0.075258 0.032195 255 0 0
-0.152272 0.669197 0.171922 127 127 0
-0.373762 -0.352353 -0.289522 255 0 0
0.385384 0.040876 -0.413107 255 0 0
0.323506 0.213720 0.320310 255 0 0
0.429931 -0.659046 -0.066471 255 0 0
0.362816 0.483278 -0.417415 255 0 0
-0.019154 0.688829 -0.440217 127 127 0
-0.250372 -0.176009 -0.419793 255 0 0
0.134323 0.700119 0.167698 127 127 0
0.349515 -0.486962 0.183576 255 0 0
-0.224850 0.074827 0.344076 255 0 0
-0.178113 0.352224 -0.506635 255 0 0
-0.087692 0.076140 -0.555141 255 0 0
-0.057083 0.721316 0.375206 127 127 0
-0.255825 0.458180 0.763672 0 255 0
0.217275 0.358931 0.389423 255 0 0
-0.209129 0.568720 0.826365 0 255 0
-0.190077 0.669197 0.161084 127 127 0
0.094900 -0.713997 -0.454098 255 0 0
0.499489 0.275856 -0.267778 255 0 0
-0.102829 -0.248972 0.670870 0 255 0
-0.305174 -0.124867 0.299237 255 0 0
-0.207472 0.229940 -0.487131 255 0 0
-0.167239 0.222185 -0.506487 255 0 0
0.278175 0.620621 0.345579 255 0 0
-0.232845 -0.361068 0.317959 255 0 0
-0.473776 0.693781 -0.147626 127 127 0
0.478467 0.638467 0.038923 127 127 0
-0.313832 0.435754 0.294992 255 0 0
0.196130 -0.414209 -0.442930 255 0 0
0.097618 0.638467 0.109180 127 127 0
0.334371 0.147598 -0.428599 255 0 0
0.091199 0.234985 -0.572895 255 0 0
-0.430010 -0.239634 -0.198271 255 0 0
-0.168767 0.638467 -0.078444 127 127 0
-0.429564 -0.151390 -0.081531 255 0 0
0.237909 0.468600 -0.537577 255 0 0
0.295366 0.632406 0.385584 255 0 0
-0.361114 -0.018101 -0.326446 255 0 0
0.423234 -0.595260 -0.187008 255 0 0
-0.430261 -0.382036 -0.074547 255 0 0
0.315534 -0.689070 -0.014800 255 0 0
-0.070472 -0.842720 -0.144438 255 0 0
0.382307 -0.842720 -0.051605 255 0 0
-0.107859 0.511938 0.435183 0 255 0
0.484239 0.141235 0.027351 255 0 0
0.118256 0.089351 -0.515927 255 0 0
-0.074585 -0.128902 0.798128 0 255 0
-0.113925 -0.327907 0.608702 0 255 0
-0.153147 0.638467 0.311489 127 127 0
0.344908 -0.086552 0.313279 255 0 0
0.353673 -0.719120 -0.287394 255 0 0
0.319129 -0.526725 0.208846 255 0 0
-0.072520 0.654354 -0.530249 127 127 0
0.292792 0.457317 -0.472658 255 0 0
-0.073398 0.524504 0.792866 0 255 0
-0.347985 0.421548 -0.426208 255 0 0
0.197214 -0.737646 -0.421074 255 0 0
-0.210434 0.099143 0.354616 255 0 0
-0.149361 0.669197 0.067998 127 127 0
-0.344376 -0.062781 -0.342493 255 0 0
-0.053021 0.506274 0.455403 255 0 0
0.465755 -0.378452 -0.174242 255 0 0
-0.171159 0.705865 0.193189 127 127 0
0.235032 -0.689070 0.040914 255 0 0
-0.270922 0.699548 -0.367833 127 127 0
0.136781 0.382165 0.403547 255 0 0
-0.358919 -0.541254 0.129126 255 0 0
0.420707 -0.466341 -0.024175 255 0 0
0.335897 -0.842720 0.035312 255 0 0
0.514240 0.540131 -0.147496 255 0 0
0.363801 -0.329176 0.253565 255 0 0
0.333675 0.730657 0.315457 127 127 0
0.002120 0.706874 -0.062144 127 127 0
0.168896 0.264295 0.403718 255 0 0
0.463696 -0.109122 -0.195550 255 0 0
-0.441159 0.653025 0.051772 127 127 0
0.044790 0.644838 -0.539851 127 127 0
-0.201527 -0.842720 -0.262413 255 0 0
0.443543 0.669197 -0.051217 127 127 0
0.269577 0.014454 0.377062 255 0 0
0.169166 0.669197 -0.069164 127 127 0
0.333075 0.722767 0.260994 127 127 0
0.077031 -0.184282 0.386803 255 0 0
0.237326 -0.822230 0.276926 255 0 0
-0.290832 -0.244827 0.293202 255 0 0
-0.283014 0.443677 0.360664 255 0 0
-0.296393 0.329923 0.348032 255 0 0
-0.310484 0.091713 0.260851 255 0 0
-0.252495 0.261659 0.755779 0 255 0
0.387315 -0.348267 -0.289699 255 0 0
0.106641 -0.402522 0.351439 255 0 0
-0.224181 0.417954 -0.469882 255 0 0
0.221773 0.669197 -0.132686 127 127 0
-0.143376 0.183313 -0.513578 255 0 0
-0.292645 0.481008 0.314171 255 0 0
0.418971 -0.659653 -0.154303 255 0 0
-0.434437 0.319927 -0.229019 255 0 0
0.313409 -0.541889 0.254742 255 0 0
-0.159490 0.693445 -0.133574 127 127 0
-0.258692 0.697326 0.148919 127 127 0
0.170590 0.506667 0.440496 255 0 0
-0.322321 0.071829 0.307680 255 0 0
0.425413 -0.242356 0.128846 255 0 0
-0.313290 0.532999 0.295806 255 0 0
-0.058448 -0.000878 -0.523252 255 0 0
-0.387080 0.559082 0.184438 255 0 0
0.100947 -0.298198 -0.490348 255 0 0
-0.070617 0.638467 -0.058528 127 127 0
0.252118 0.378147 0.359146 255 0 0
-0.067211 -0.780561 0.327679 255 0 0
0.105669 -0.541281 -0.449438 255 0 0
-0.244480 -0.435846 -0.417012 255 0 0
-0.056749 0.638467 -0.338328 127 127 0
-0.265719 -0.359994 -0.415351 255 0 0
-0.377372 -0.070355 0.169530 255 0 0
-0.145290 -0.842720 0.220862 255 0 0
-0.311099 -0.635269 0.114422 255 0 0
0.486988 -0.060216 -0.104859 255 0 0
-0.251974 0.424224 0.843766 0 255 0
-0.078487 -0.004055 0.397114 255 0 0
-0.225153 -0.059715 0.330369 255 0 0
-0.357601 -0.231611 0.141376 255 0 0
0.263152 0.331558 0.366002 255 0 0
0.180263 0.669197 0.078604 127 127 0
-0.141528 0.412124 0.457486 0 255 0
0.523969 0.248121 0.071834 255 0 0
0.444653 0.451423 -0.315942 255 0 0
0.240844 0.669197 -0.084431 127 127 0
-0.098568 0.476371 0.414615 255 0 0
0.098769 -0.842720 -0.027650 255 0 0
-0.423371 0.004873 0.081668 255 0 0
-0.351999 0.693781 0.260910 127 127 0
-0.169777 -0.339441 -0.479106 255 0 0
-0.104126 0.172082 0.876992 0 255 0
0.095251 -0.689070 0.277066 255 0 0
-0.488044 0.369796 0.029834 255 0 0
-0.287096 0.614413 -0.425004 255 0 0
0.231879 -0.195657 0.372373 255 0 0
-0.289838 -0.570056 0.172306 255 0 0
-0.323926 0.669197 -0.086174 127 127 0
-0.250169 0.693781 0.350553 127 127 0
0.260239 0.189783 0.395743 255 0 0
0.259738 0.385379 -0.491154 255 0 0
-0.259872 -0.142856 0.294822 255 0 0
0.376961 0.432283 -0.403286 255 0 0
-0.018537 -0.549187 0.357316 255 0 0
0.393366 -0.235039 0.187301 255 0 0
0.158003 -0.357804 0.345049 255 0 0
0.040236 -0.842720 -0.045691 255 0 0
0.327826 0.710836 0.364292 127 127 0
0.365032 0.730657 -0.420404 127 127 0
-0.113042 0.561172 0.726393 0 255 0
0.086776 0.588663 -0.536107 255 0 0
-0.198782 -0.755928 0.270108 255 0 0
0.172577 -0.321716 -0.500440 255 0 0
0.419444 -0.781723 -0.121714 255 0 0
-0.048437 0.684595 -0.044792 127 127 0
-0.122806 -0.842720 -0.318684 255 0 0
0.467714 0.387796 -0.270831 255 0 0
-0.349539 -0.510975 -0.170822 255 0 0
0.117643 -0.737378 -0.449376 255 0 0
-0.435788 0.613849 -0.194403 255 0 0
-0.460115 0.277120 -0.012271 255 0 0
0.321595 -0.574213 0.173522 255 0 0
-0.139698 0.320425 -0.553756 255 0 0
0.387525 -0.621742 -0.178435 255 0 0
0.168557 -0.842720 -0.063495 255 0 0
-0.416875 0.569516 0.217782 255 0 0
0.444016 0.074652 0.163522 255 0 0
0.432101 0.183777 0.251646 255 0 0
-0.077620 -0.271169 0.398739 255 0 0
0.490556 -0.199913 -0.175707 255 0 0
0.504151 -0.028994 -0.195640 255 0 0
0.499703 0.270607 -0.168069 255 0 0
0.145735 -0.575543 -0.432286 255 0 0
0.074089 -0.430325 -0.505399 255 0 0
0.027526 0.076347 -0.536789 255 0 0
0.059578 -0.689070 -0.233579 255 0 0
-0.346963 -0.360807 -0.271312 255 0 0
0.499705 0.730657 0.079954 127 127 0
0.189524 -0.071235 -0.493950 255 0 0
0.154378 0.730657 0.438961 127 127 0
0.284324 -0.404083 -0.391590 255 0 0
0.061627 -0.689070 0.321144 255 0 0
0.428072 -0.395927 0.061604 255 0 0
-0.064240 -0.208819 0.704479 0 255 0
-0.410564 0.643204 0.227768 255 0 0
-0.204221 0.638467 -0.296019 127 127 0
0.274432 0.638467 0.066096 127 127 0
-0.252959 0.669197 -0.223002 127 127 0
0.160909 0.669197 0.327140 127 127 0
-0.090712 0.144825 0.405512 255 0 0
-0.005116 0.638467 0.239842 127 127 0
0.002318 0.730657 -0.554317 127 127 0
0.245804 0.669197 0.158976 127 127 0
-0.157294 -0.391247 0.536463 0 255 0
0.050264 -0.842720 -0.172003 255 0 0
0.202936 0.730657 0.397610 127 127 0
0.385729 -0.178271 -0.332336 255 0 0
-0.090846 0.713901 0.448224 127 127 0
-0.453369 0.575003 -0.094363 255 0 0
-0.410221 0.086897 0.134139 255 0 0
-0.436326 0.729296 -0.037990 127 127 0
-0.214091 0.698375 -0.082420 127 127 0
-0.291733 0.540131 0.329666 255 0 0
-0.442427 0.313430 0.082036 255 0 0
0.138399 0.638467 0.124132 127 127 0
-0.369303 0.349902 0.278997 255 0 0
0.126420 0.689384 -0.426987 127 127 0
0.372713 -0.032897 0.294714 255 0 0
-0.458250 -0.175070 -0.046134 255 0 0
-0.100636 0.638467 -0.139715 127 127 0
0.502276 0.576929 0.150342 255 0 0
-0.145319 -0.689070 -0.340823 255 0 0
-0.447093 0.143235 0.136299 255 0 0
0.429776 0.403933 -0.389061 255 0 0
0.511457 0.417259 -0.123626 255 0 0
0.287223 0.034561 -0.454225 255 0 0
-0.465538 0.480875 -0.094744 255 0 0
0.541142 0.628555 -0.138662 255 0 0
0.543245 0.682498 -0.121761 127 127 0
0.315919 -0.168134 0.325196 255 0 0
0.501244 0.598084 -0.010644 255 0 0
-0.445897 0.365071 0.075841 255 0 0
0.479176 0.108294 -0.209303 255 0 0
0.479817 0.559111 0.088626 255 0 0
-0.205524 -0.842720 -0.346277 255 0 0
-0.247377 -0.689070 -0.007214 255 0 0
0.059321 0.540131 0.438692 255 0 0
0.059112 0.071781 0.400895 255 0 0
-0.008986 -0.689070 -0.227141 255 0 0
0.082472 -0.598189 0.352477 255 0 0
-0.047286 -0.689070 0.260974 255 0 0
0.358335 -0.512781 -0.261931 255 0 0
0.121985 0.066416 -0.557409 255 0 0
0.353269 0.012468 -0.398280 255 0 0
-0.460442 0.361984 -0.128764 255 0 0
0.024226 0.638467 0.356769 127 127 0
0.298804 0.669197 -0.384083 127 127 0
-0.258825 0.669197 0.055572 127 127 0
-0.418580 0.190419 0.131591 255 0 0
-0.073804 0.697892 0.153196 127 127 0
0.370175 0.352117 0.328182 255 0 0
0.083427 -0.378949 -0.481258 255 0 0
0.123348 0.638467 0.058136 127 127 0
-0.151753 0.698561 0.239543 127 127 0
0.421377 -0.674874 0.005310 255 0 0
0.194838 0.638467 0.360022 127 127 0
-0.381977 0.638467 -0.228371 127 127 0
0.442333 -0.412887 -0.030520 255 0 0
-0.293839 -0.607203 -0.276413 255 0 0
-0.424459 -0.160792 0.002942 255 0 0
0.177080 0.545619 -0.560509 255 0 0
-0.033831 0.429928 0.516217 0 255 0
0.004338 -0.108228 -0.519886 255 0 0
0.096323 0.638467 -0.292234 127 127 0
0.213576 0.693615 0.003572 127 127 0
-0.219985 -0.113536 0.327029 255 0 0
-0.203458 -0.078315 0.341411 255 0 0
-0.300333 0.669197 0.049594 127 127 0
0.327506 -0.689070 0.117083 255 0 0
0.323540 -0.842720 -0.323872 255 0 0
-0.386304 -0.033512 -0.254791 255 0 0
-0.087895 0.623596 -0.526792 127 127 0
-0.063374 0.483708 0.748408 0 255 0
0.393878 0.414487 -0.384641 255 0 0
-0.089269 0.725263 -0.496787 127 127 0
-0.389477 0.306140 0.197462 255 0 0
0.400336 -0.584904 -0.081480 255 0 0
0.225338 0.403479 -0.508738 255 0 0
0.272063 -0.365180 -0.408197 255 0 0
0.286080 -0.092377 0.303582 255 0 0
-0.122723 -0.125507 0.359034 255 0 0
0.477257 -0.136567 -0.240928 255 0 0
0.008710 -0.689070 -0.029287 255 0 0
-0.258498 0.393762 -0.498507 255 0 0
-0.097072 -0.078816 0.385213 255 0 0
-0.261464 -0.650156 0.228737 255 0 0
-0.209841 0.569811 0.356878 255 0 0
0.370628 0.697339 0.006624 127 127 0
-0.212370 0.472135 0.694426 0 255 0
-0.406431 -0.159320 -0.156527 255 0 0
0.126344 -0.842720 0.034659 255 0 0
-0.257105 -0.491838 -0.335422 255 0 0
0.449028 -0.257040 -0.126397 255 0 0
-0.386326 0.638467 -0.084021 127 127 0
-0.102785 0.095829 -0.508289 255 0 0
-0.201713 0.454884 0.375207 255 0 0
0.347504 -0.318327 0.227899 255 0 0
-0.154535 0.466932 0.429526 255 0 0
-0.375915 0.021905 0.188177 255 0 0
0.252981 -0.689070 0.200458 255 0 0
-0.424046 0.319415 0.201006 255 0 0
-0.277080 -0.689070 0.049023 255 0 0
0.424689 0.638467 0.154970 127 127 0
0.005117 0.739078 0.053591 127 127 0
-0.263557 0.229833 -0.451412 255 0 0
0.006472 -0.073711 0.389438 255 0 0
0.260717 -0.842720 -0.259120 255 0 0
0.395339 -0.483359 -0.229694 255 0 0
-0.238605 -0.689070 -0.151047 255 0 0
0.164528 0.173069 -0.522466 255 0 0
-0.012194 0.424269 0.428619 255 0 0
-0.432590 -0.047150 -0.148052 255 0 0
0.401481 -0.373368 0.136007 255 0 0
0.441823 -0.488347 0.071053 255 0 0
-0.047880 0.730657 -0.558560 127 127 0
0.050092 0.558279 0.460569 255 0 0
-0.309046 -0.842720 0.158351 255 0 0
-0.073679 -0.426493 0.652791 0 255 0
0.490409 -0.306894 -0.047181 255 0 0
-0.080625 0.669197 -0.248979 127 127 0
0.420444 0.638467 -0.187561 127 127 0
-0.070587 0.669197 -0.385330 127 127 0
-0.388951 0.454164 -0.326142 255 0 0
-0.478553 0.059185 -0.110071 255 0 0
0.291745 0.427629 -0.509479 255 0 0
-0.182605 -0.507740 0.284624 255 0 0
-0.093876 0.638467 -0.111104 127 127 0
0.327067 0.638467 -0.002985 127 127 0
0.358205 -0.393143 -0.319816 255 0 0
0.370895 0.031598 0.260536 255 0 0
-0.384235 0.151015 0.246725 255 0 0
0.238746 0.183453 0.371698 255 0 0
-0.352001 0.299306 0.229776 255 0 0
0.500065 0.597116 -0.120538 255 0 0
-0.157425 0.210957 0.865085 0 255 0
0.523534 0.300198 0.081312 255 0 0
-0.128005 -0.019794 0.381388 255 0 0
-0.397705 -0.330359 -0.149086 255 0 0
-0.119008 0.031862 -0.543547 255 0 0
0.192492 -0.294955 0.375379 255 0 0
0.122911 0.143004 -0.531331 255 0 0
-0.132422 -0.456087 0.454245 0 255 0
-0.414039 -0.400369 0.047883 255 0 0
0.536680 0.330530 0.028759 255 0 0
0.393498 -0.000704 0.277343 255 0 0
-0.315116 0.468906 -0.457450 255 0 0
0.180304 -0.406792 -0.484363 255 0 0
-0.194607 -0.092049 -0.501531 255 0 0
0.420683 -0.545233 -0.070925 255 0 0
-0.158141 -0.547656 -0.397709 255 0 0
0.021772 0.278484 0.426094 255 0 0
0.043111 -0.047563 0.435027 255 0 0
-0.350075 -0.520168 0.040249 255 0 0
-0.184483 -0.100206 0.825104 0 255 0
0.006622 0.296320 -0.579372 255 0 0
-0.082570 0.669197 -0.085770 127 127 0
-0.147163 0.073796 0.770166 0 255 0
0.092151 -0.585008 -0.443909 255 0 0
0.457077 0.112415 0.207939 255 0 0
0.464344 0.693781 -0.256779 127 127 0
0.364419 0.730657 0.309680 127 127 0
0.006888 0.669197 -0.283446 127 127 0
0.134681 -0.689070 -0.030795 255 0 0
-0.001685 -0.642122 -0.437451 255 0 0
-0.137746 -0.244958 0.351331 255 0 0
-0.438183 -0.075728 -0.061205 255 0 0
-0.133773 -0.499979 0.374702 0 255 0
-0.308540 -0.689070 -0.118135 255 0 0
-0.113505 0.237948 0.874988 0 255 0
0.477016 0.087171 -0.165821 255 0 0
0.033278 -0.842720 -0.347520 255 0 0
0.297232 0.693781 -0.471263 255 0 0
0.398140 -0.209406 -0.284742 255 0 0
0.494826 0.020950 -0.098724 255 0 0
0.345433 0.638467 -0.271840 127 127 0
0.124965 -0.109903 -0.540663 255 0 0
0.022037 0.669197 -0.113982 127 127 0
0.434814 0.326616 -0.380346 255 0 0
-0.205538 -0.812323 -0.387318 255 0 0
0.282555 0.669197 0.098028 127 127 0
0.540801 0.476171 -0.140371 255 0 0
0.194999 0.691232 -0.100895 127 127 0
-0.163920 0.000142 0.355796 255 0 0
-0.401679 -0.110201 0.180595 255 0 0
-0.233483 0.638467 -0.322910 127 127 0
-0.156150 -0.239946 0.378013 255 0 0
-0.052496 -0.412697 0.533040 0 255 0
-0.125131 0.130908 -0.503867 255 0 0
-0.004318 0.008317 0.396223 255 0 0
-0.453257 -0.188108 -0.003517 255 0 0
-0.364382 0.638467 0.056321 127 127 0
0.435540 0.095525 -0.359674 255 0 0
0.400506 -0.474097 -0.186855 255 0 0
0.405393 -0.547586 -0.018153 255 0 0
-0.222164 -0.335858 0.614386 0 255 0
0.510461 0.244725 -0.061662 255 0 0
0.482218 0.044423 -0.182640 255 0 0
0.053744 -0.804791 -0.459245 255 0 0
-0.412801 -0.155405 0.148587 255 0 0
0.083954 0.557654 0.414464 255 0 0
-0.226117 0.479583 0.361788 255 0 0
-0.307532 0.695807 0.072019 127 127 0
-0.377256 -0.105020 -0.342400 255 0 0
0.359122 -0.312037 -0.337571 255 0 0
-0.147735 -0.689070 -0.016776 255 0 0
0.244345 -0.842720 -0.204398 255 0 0
-0.441584 0.221453 0.072623 255 0 0
-0.000843 0.669197 -0.170708 127 127 0
0.360889 -0.173242 0.285943 255 0 0
-0.005850 0.231656 0.423375 255 0 0
0.307549 -0.842720 0.018180 255 0 0
0.544591 0.493721 -0.011763 255 0 0
0.380567 0.669197 -0.267206 127 127 0
0.268842 0.394240 0.399384 255 0 0
-0.302356 0.258522 0.299141 255 0 0
-0.486569 0.693781 -0.048223 255 0 0
0.485388 0.396817 -0.229438 255 0 0
0.415078 0.366996 0.234934 255 0 0
0.484567 0.568332 -0.195936 255 0 0
-0.496891 0.414156 -0.050939 255 0 0
-0.256149 0.638467 -0.079420 127 127 0
-0.130878 -0.805843 -0.428902 255 0 0
0.071854 0.311996 -0.578122 255 0 0
0.216505 -0.394980 -0.471192 255 0 0
-0.010701 0.469862 0.514803 0 255 0
0.209646 0.638467 -0.413471 127 127 0
0.396253 -0.822522 -0.207043 255 0 0
-0.160327 0.547347 0.677728 0 255 0
0.452362 -0.314102 0.011496 255 0 0
-0.080094 0.638467 -0.406040 127 127 0
0.307976 -0.167190 -0.453079 255 0 0
0.314234 -0.555713 -0.372547 255 0 0
-0.223243 0.043503 0.342384 255 0 0
0.476058 0.129613 -0.299389 255 0 0
0.094062 0.669197 -0.398806 127 127 0
0.172028 -0.428437 0.361537 255 0 0
0.474875 -0.183911 -0.085335 255 0 0
-0.142481 0.440117 -0.523152 255 0 0
0.185634 -0.689070 -0.103262 255 0 0
0.441164 -0.593318 -0.019528 255 0 0
-0.401284 0.008376 -0.229810 255 0 0
-0.108468 -0.058298 0.853731 0 255 0
-0.364226 -0.577597 -0.027606 255 0 0
0.053500 0.697892 -0.308149 127 127 0
-0.359824 -0.604398 -0.080292 255 0 0
0.524522 -0.000689 -0.086126 255 0 0
0.458546 0.021389 0.089892 255 0 0
-0.201928 0.273880 0.356084 255 0 0
-0.230722 0.693420 -0.511711 127 127 0
0.289688 -0.498806 0.244671 255 0 0
-0.371112 -0.151880 0.220128 255 0 0
0.424084 0.693781 0.214819 127 127 0
0.291526 0.217099 0.379892 255 0 0
0.208435 0.144856 -0.505038 255 0 0
-0.087790 0.537943 0.856692 0 255 0
-0.332936 -0.009508 -0.410175 255 0 0
-0.370265 0.317389 0.276360 255 0 0
-0.111507 0.700151 -0.275320 127 127 0
-0.396517 0.116184 0.166602 255 0 0
-0.343589 0.137309 0.247125 255 0 0
0.414144 -0.061400 0.191401 255 0 0
0.197386 0.048723 0.413250 255 0 0
-0.209177 0.638467 0.074989 127 127 0
0.103377 0.571251 0.455379 255 0 0
-0.034339 0.198366 0.449902 255 0 0
0.119165 -0.051228 -0.516396 255 0 0
-0.158138 -0.842720 -0.120650 255 0 0
0.151697 -0.195573 0.357217 255 0 0
0.311441 -0.661126 0.178335 255 0 0
0.503671 0.189958 -0.122943 255 0 0
-0.158586 0.692275 -0.092019 127 127 0
-0.305172 -0.031606 0.312041 255 0 0
0.423632 -0.511530 -0.111222 255 0 0
0.467909 -0.139055 0.045832 255 0 0
-0.441647 0.730657 -0.143115 127 127 0
-0.095474 0.638467 0.109983 127 127 0
0.421502 -0.360694 0.059123 255 0 0
