ply
format ascii 1.0
element vertex 614
property float x
property float y
property float z
property float nx
property float ny
property float nz
property uchar red
property uchar green
property uchar blue
property float opacity
end_header
-0.215690 -0.700051 -0.073666 0.795401 -0.357220 0.489624 209 241 252 0.500000
0.188219 0.369091 0.159802 -0.748171 0.332921 -0.573937 221 253 255 0.500000
-0.110863 0.664178 0.206415 -0.165061 0.889760 0.425538 134 166 175 0.500000
0.002814 0.385702 -0.221169 0.017864 0.163306 0.986414 211 244 249 0.500000
-0.057811 0.688495 0.220530 0.273923 -0.361610 -0.891181 197 229 241 0.500000
-0.184934 -0.802983 0.142010 0.812916 0.169898 -0.557048 68 95 103 0.500000
-0.066930 -0.180394 0.226438 -0.315121 -0.436617 0.842653 138 167 175 0.500000
0.112941 0.647275 0.219175 0.422191 0.335753 0.842036 215 241 251 0.500000
-0.135592 -0.032199 0.169465 -0.637538 0.147017 0.756261 212 244 255 0.500000
-0.117384 -0.797901 0.206951 0.518890 0.207015 -0.829396 210 240 250 0.500000
-0.037870 -0.837097 0.104712 0.018965 0.999099 -0.037962 212 244 255 0.500000
0.082881 0.021507 0.210401 -0.350281 0.005379 -0.936629 209 243 254 0.500000
0.207325 0.223729 -0.074465 -0.925111 0.026098 0.378799 221 252 253 0.500000
-0.209923 -0.009458 0.004062 1.000000 0.000065 0.000737 207 243 249 0.500000
0.116241 0.052293 0.194465 -0.504523 -0.002007 -0.863396 213 245 253 0.500000
-0.249736 -0.303876 0.008037 -0.976929 0.210930 0.033445 141 167 175 0.500000
-0.184583 0.268650 -0.094155 -0.878513 -0.024281 -0.477100 212 244 253 0.500000
-0.044357 0.396202 -0.222225 0.131355 0.857630 0.497210 211 243 254 0.500000
-0.198948 0.684672 -0.033946 -0.915836 0.357078 -0.183682 216 245 253 0.500000
-0.129196 -0.200243 -0.197044 0.551143 -0.113430 0.826665 209 243 254 0.500000
-0.254921 -0.514352 -0.008903 0.976206 0.214301 0.033128 213 245 255 0.500000
-0.239188 -0.561810 -0.071543 0.481504 0.864264 -0.145609 213 240 247 0.500000
0.178775 -0.701185 0.187998 0.689857 -0.156176 0.706899 215 247 254 0.500000
0.226038 -0.164912 0.106814 -0.902234 -0.139425 -0.408085 129 160 167 0.500000
-0.178026 -0.187393 -0.151379 0.754229 -0.121596 0.645255 211 243 252 0.500000
0.048846 0.947651 0.068750 0.564319 0.000000 0.825557 179 207 214 0.500000
-0.161226 -0.476731 -0.194602 0.640880 0.000373 0.767641 136 164 173 0.500000
-0.046784 -0.837097 0.075275 0.022601 0.999531 -0.020644 209 241 249 0.500000
-0.191412 -0.135623 -0.091159 -0.844566 0.246185 -0.475501 213 245 253 0.500000
-0.182528 0.729342 -0.066558 -0.822398 0.465341 -0.327291 217 249 255 0.500000
-0.238822 -0.697220 0.047360 0.891068 -0.388387 -0.234848 216 248 255 0.500000
0.180885 0.648718 -0.145134 0.762760 -0.628331 -0.152964 212 243 249 0.500000
-0.080108 -0.147946 -0.213452 0.358735 -0.184815 0.914961 108 135 142 0.500000
0.243773 -0.680146 -0.015896 -0.986035 -0.112114 0.123145 212 244 253 0.500000
0.170015 0.435923 -0.183849 0.625980 0.007504 -0.779803 211 238 244 0.500000
-0.205399 -0.038163 0.054399 -0.963486 0.171733 0.205431 118 148 158 0.500000
-0.006626 -0.397655 -0.254401 -0.037594 0.306210 -0.951221 212 244 255 0.500000
0.184758 -0.074636 -0.129145 -0.542639 -0.532155 0.649887 217 247 254 0.500000
0.146721 0.821968 0.002324 -0.707822 -0.705545 0.034569 183 216 222 0.500000
-0.130919 -0.287575 0.210624 -0.504312 -0.664311 0.551688 211 243 254 0.500000
0.223882 0.633341 -0.095425 -0.890288 -0.201701 0.408295 219 252 255 0.500000
0.248912 0.569633 0.013761 -0.710828 -0.702346 -0.037862 221 246 255 0.500000
-0.178801 -0.652286 -0.166460 -0.669644 0.232978 -0.705194 212 244 255 0.500000
-0.074167 0.948940 0.030299 -0.699636 -0.000005 -0.714499 49 49 255 1.000000
0.218006 0.145458 0.055875 0.974645 -0.013606 0.223342 213 245 253 0.500000
-0.075344 0.867848 -0.021608 0.615463 -0.755148 0.225734 211 243 253 0.500000
-0.074379 0.376365 -0.209929 0.228614 -0.631758 0.740687 211 244 248 0.500000
-0.045555 0.265129 0.221032 -0.228941 0.000000 0.973440 2 195 252 1.000000
0.215127 -0.154855 -0.107383 -0.507834 -0.629749 0.587810 212 244 253 0.500000
-0.246551 -0.534546 -0.058132 0.967132 -0.059744 0.247157 190 222 230 0.500000
-0.004278 0.074838 0.227893 0.040879 0.000000 -0.999164 255 255 255 1.000000
0.138108 0.828143 -0.011562 -0.692040 -0.714467 0.103038 228 253 255 0.500000
0.047971 0.041744 -0.205227 0.189085 0.001751 -0.981959 206 238 247 0.500000
-0.082228 0.473357 -0.232551 0.284806 -0.478341 0.830708 211 243 254 0.500000
-0.049158 -0.312547 0.247334 0.155340 -0.688174 -0.708721 205 238 245 0.500000
-0.020681 -0.349895 0.265850 -0.109984 0.053148 0.992511 160 186 195 0.500000
0.155539 0.048185 0.165338 0.680774 -0.000415 0.732493 126 158 167 0.500000
0.089417 0.248500 -0.195863 0.384951 0.000000 -0.922937 1 43 157 1.000000
-0.201350 -0.204777 0.138412 0.831327 -0.142896 -0.537100 129 158 163 0.500000
0.131538 0.741084 0.159967 0.543497 0.470586 0.695096 148 180 188 0.500000
0.086605 0.219793 -0.193774 -0.367674 0.025692 0.929600 211 244 255 0.500000
-0.216830 -0.458107 -0.130897 0.849979 -0.013830 0.526635 212 244 251 0.500000
0.200728 -0.035408 0.104479 -0.887605 -0.168146 -0.428818 213 245 254 0.500000
0.120014 0.419855 -0.214891 0.440543 -0.122335 -0.889357 115 146 153 0.500000
0.026756 0.984552 -0.075849 0.215854 0.069677 -0.973936 49 49 255 1.000000
0.152745 0.798585 0.068013 -0.709939 -0.632017 -0.310710 209 241 252 0.500000
0.166205 -0.332872 -0.196473 0.601228 0.130525 -0.788345 211 242 249 0.500000
0.169572 -0.300642 0.190522 0.415968 0.616848 0.668183 210 244 255 0.500000
0.092415 0.975878 0.014655 0.994217 0.068311 0.082857 49 49 255 1.000000
0.107337 -0.408797 -0.222022 -0.363373 0.525332 0.769406 210 245 254 0.500000
-0.240940 0.473934 -0.054325 0.775995 0.629443 0.040404 213 244 253 0.500000
0.221809 0.101966 0.041142 -0.987935 0.000000 -0.154867 255 255 255 1.000000
0.195925 -0.493128 0.190751 0.716093 0.009581 0.697939 219 251 255 0.500000
-0.108119 -0.248960 0.230981 -0.274625 0.748372 0.603756 214 241 254 0.500000
0.252194 -0.329018 0.046555 -0.783922 0.620833 -0.005693 200 233 246 0.500000
-0.050793 0.310372 -0.204098 -0.233790 -0.338682 -0.911393 182 210 219 0.500000
-0.193188 -0.540011 -0.161216 -0.758600 -0.050766 -0.649575 217 244 254 0.500000
0.259014 -0.440080 0.018661 -0.783697 0.621135 -0.003076 209 241 249 0.500000
-0.166561 -0.825432 -0.137169 0.617092 0.596353 0.513381 208 239 247 0.500000
0.105313 0.254371 0.201110 0.452455 -0.029149 0.891311 212 244 253 0.500000
-0.224872 -0.152476 -0.048429 -0.946748 0.212891 -0.241547 133 165 175 0.500000
0.223498 0.068763 -0.012295 -0.996085 0.000000 0.088396 255 255 255 1.000000
-0.093034 0.325374 0.208454 -0.408362 -0.482620 0.774802 182 209 217 0.500000
0.015043 0.842177 -0.108632 0.043481 0.731832 -0.680097 204 236 245 0.500000
-0.231726 -0.270998 0.093445 -0.941059 0.085790 0.327181 214 246 253 0.500000
0.223777 0.155487 0.012007 -0.999484 -0.000276 -0.032117 220 251 255 0.500000
0.197162 0.072196 0.113542 -0.875058 0.000000 -0.484017 255 255 255 1.000000
0.189236 0.251792 -0.109352 -0.841741 0.008392 0.539816 208 240 247 0.500000
0.244419 -0.545686 0.116805 0.909993 -0.034848 0.413156 215 244 252 0.500000
-0.119738 0.418065 -0.207192 -0.505897 -0.149004 -0.849627 213 246 251 0.500000
0.143504 0.295286 0.175405 0.627274 -0.012553 0.778697 211 243 252 0.500000
0.049696 0.620747 0.238803 -0.159408 0.617272 -0.770432 207 237 245 0.500000
0.217078 -0.402106 0.154649 -0.117691 -0.836025 -0.535921 214 245 253 0.500000
-0.241241 0.414365 0.011490 0.423824 0.903720 0.060521 208 239 250 0.500000
-0.038807 0.991305 0.052229 0.000000 1.000000 0.000000 209 241 251 0.500000
0.000585 -0.549394 0.268379 0.028596 -0.348377 -0.936918 208 240 249 0.500000
0.222519 -0.708495 0.104458 -0.715724 -0.374101 -0.589736 214 239 247 0.500000
0.250535 -0.359484 0.077737 0.380868 0.833817 0.399610 148 180 190 0.500000
0.075548 0.398535 0.238582 -0.089747 0.979242 -0.181745 211 243 255 0.500000
0.003710 0.406978 -0.240077 0.021624 0.128007 0.991538 214 243 249 0.500000
-0.125088 0.388855 -0.181531 -0.512724 0.156754 -0.844122 208 237 245 0.500000
0.232214 0.391450 0.098247 -0.876598 0.390339 -0.281444 211 243 252 0.500000
-0.056879 0.486830 0.246742 0.159634 -0.736359 -0.657490 210 243 254 0.500000
0.107340 -0.837097 0.034366 -0.043962 0.999011 -0.006716 163 188 197 0.500000
0.255452 0.417415 -0.003306 0.977702 -0.206256 -0.039453 164 197 202 0.500000
-0.245864 -0.477373 0.077482 -0.803187 0.461122 0.377170 212 244 255 0.500000
-0.028785 -0.253769 0.256831 -0.135940 0.150232 0.979260 204 236 246 0.500000
0.186753 -0.339079 0.194180 0.663806 0.143029 0.734101 125 154 163 0.500000
0.219810 0.705226 -0.006924 0.782280 -0.622889 0.006884 205 240 248 0.500000
-0.202012 0.454197 0.151654 -0.810570 -0.057243 0.582838 212 242 255 0.500000
-0.240778 -0.291269 0.069905 0.964808 -0.089190 -0.247367 139 168 178 0.500000
-0.219610 -0.317175 -0.114701 -0.888358 -0.306631 -0.341757 208 238 245 0.500000
-0.000451 0.761193 -0.178845 0.020889 -0.522343 0.852479 208 243 249 0.500000
0.022804 0.823747 0.144117 0.085224 0.710226 0.698796 211 243 252 0.500000
-0.208855 -0.794334 -0.086406 0.889072 0.309023 0.337721 213 243 254 0.500000
-0.240891 -0.515329 -0.078477 0.944121 0.029240 0.328299 195 221 232 0.500000
0.160931 -0.295277 -0.178822 0.616132 0.136118 -0.775792 211 243 252 0.500000
0.023224 -0.837097 -0.195820 -0.004177 0.994821 0.101558 213 247 255 0.500000
0.183432 0.269817 0.133906 0.809815 -0.031818 0.585822 195 224 234 0.500000
-0.003276 0.928453 0.004363 0.000000 -1.000000 0.000000 49 49 255 1.000000
-0.229618 -0.438058 -0.107173 -0.904378 0.001112 -0.426732 132 159 166 0.500000
-0.172230 0.532951 0.191313 0.443966 0.888948 -0.112543 218 250 255 0.500000
0.211550 0.496143 0.162656 0.803877 -0.122570 0.582030 213 243 254 0.500000
-0.184440 -0.701209 -0.152061 0.268162 -0.761549 0.590027 212 244 255 0.500000
0.251494 -0.467784 0.070744 0.695265 0.610620 0.379144 216 249 251 0.500000
0.041258 0.088492 0.224639 0.165502 0.000000 0.986209 0 193 246 1.000000
-0.071975 -0.315042 -0.230059 0.119485 -0.896638 0.426338 210 243 255 0.500000
0.043187 0.991305 -0.041847 0.000000 -1.000000 0.000000 218 249 252 0.500000
-0.193244 -0.652096 0.164540 -0.736129 0.054375 0.674653 215 246 251 0.500000
-0.071571 -0.837097 0.151087 0.031716 0.997818 -0.057914 212 243 253 0.500000
0.042572 -0.316657 -0.242650 -0.035918 -0.955761 0.291943 212 243 252 0.500000
0.143199 0.821444 0.042707 -0.686320 -0.710674 -0.154620 212 242 252 0.500000
-0.224506 0.664378 0.003202 -0.966191 0.256758 -0.023459 198 225 230 0.500000
0.107105 -0.179266 0.215033 -0.445496 0.374983 -0.812970 212 244 254 0.500000
0.208898 -0.667167 -0.144772 0.372233 -0.916949 0.143691 204 234 245 0.500000
-0.022315 -0.535923 0.254334 -0.113278 0.300449 0.947047 210 242 253 0.500000
0.094620 0.795969 0.141821 0.418058 0.630594 0.653895 207 239 249 0.500000
-0.041620 0.988455 -0.048310 -0.648717 0.000509 -0.761029 212 244 253 0.500000
-0.008597 -0.571672 -0.252299 -0.039053 0.164704 -0.985570 177 209 218 0.500000
0.220767 0.373042 -0.097929 -0.854515 0.293545 0.428527 209 244 255 0.500000
-0.167395 0.082734 0.144504 0.781606 0.000000 -0.623773 255 255 255 1.000000
-0.087282 -0.837097 -0.096970 -0.038051 -0.998406 -0.041685 211 243 249 0.500000
0.042237 -0.213257 -0.237276 0.146700 0.110143 -0.983030 214 242 254 0.500000
-0.126377 0.241441 -0.163193 -0.612894 0.004752 -0.790151 210 243 255 0.500000
0.088939 -0.695343 -0.228392 0.120309 0.915419 -0.384101 202 238 246 0.500000
0.060104 -0.201412 0.242467 0.030496 0.970571 0.238875 209 240 250 0.500000
0.186829 -0.580542 0.194963 -0.682933 0.024137 -0.730082 210 242 251 0.500000
0.223766 -0.236841 -0.117296 0.915966 -0.112563 -0.385144 220 253 255 0.500000
-0.046463 0.465578 -0.241992 -0.197643 -0.127989 -0.971883 209 241 249 0.500000
-0.214609 0.063895 0.017842 0.998807 0.000000 -0.048831 255 255 255 1.000000
0.012858 0.673169 0.235322 0.028520 0.355313 0.934312 213 250 251 0.500000
0.251018 -0.492066 0.106087 -0.852355 -0.231371 -0.468996 132 164 173 0.500000
0.210555 0.061023 -0.069594 0.937021 0.000000 -0.349272 5 103 216 1.000000
-0.232113 0.406158 -0.054494 -0.652850 -0.757384 0.012493 217 248 255 0.500000
-0.222143 -0.404428 0.135221 0.875185 -0.017544 -0.483469 212 244 253 0.500000
-0.131670 -0.703130 0.214185 -0.552164 -0.115457 0.825702 212 243 254 0.500000
-0.007403 -0.187332 0.236873 -0.063907 -0.050374 0.996684 212 238 245 0.500000
0.055595 0.680353 -0.212450 -0.203339 -0.345964 0.915949 203 236 244 0.500000
-0.208140 -0.105038 0.037050 -0.974709 -0.209679 0.077305 209 241 251 0.500000
0.135592 0.517403 -0.214255 0.481425 -0.400779 -0.779491 213 245 254 0.500000
0.246862 -0.764017 0.014764 -0.735592 0.677340 0.010700 141 171 180 0.500000
-0.212415 0.184999 0.048558 0.982276 0.000000 -0.187442 255 255 255 1.000000
-0.211662 -0.114606 -0.005916 0.816557 -0.571909 0.078446 212 244 255 0.500000
-0.053794 0.658082 0.232462 -0.242793 0.338528 0.909093 211 243 254 0.500000
-0.232123 0.423736 0.082628 -0.940278 -0.200816 0.274864 212 244 253 0.500000
-0.086146 -0.836794 -0.177104 -0.059883 -0.990868 -0.120811 212 241 251 0.500000
0.114414 -0.185792 -0.195107 -0.459998 -0.145127 0.875979 133 161 168 0.500000
0.146828 0.462823 -0.205165 0.577336 -0.094872 -0.810976 206 238 246 0.500000
0.217290 0.519939 -0.127006 0.217300 0.766051 -0.604935 210 242 251 0.500000
0.251442 -0.668680 -0.054093 -0.853905 0.508744 0.109664 212 244 253 0.500000
0.005053 0.619901 -0.227335 -0.008568 -0.581595 -0.813434 210 244 254 0.500000
-0.057042 -0.352450 0.259384 -0.248015 0.053211 0.967294 215 244 254 0.500000
-0.186508 0.613563 -0.142859 0.794708 -0.115318 0.595937 211 244 255 0.500000
0.258005 0.538913 -0.040348 -0.561524 0.822472 -0.090726 208 240 249 0.500000
0.070552 0.558925 0.252802 0.225898 0.397940 0.889165 201 231 241 0.500000
-0.197350 -0.378972 0.152345 -0.819703 -0.530742 0.215406 211 243 252 0.500000
-0.163850 -0.720783 0.185806 -0.380430 0.561677 0.734706 204 239 241 0.500000
0.192354 0.315056 -0.107438 -0.853461 0.000000 0.521157 255 255 255 1.000000
0.199107 -0.264103 0.170861 -0.797784 0.471611 -0.375665 208 246 253 0.500000
0.202470 0.132245 -0.092491 -0.893067 0.000000 0.449924 255 255 255 1.000000
-0.197037 0.131691 0.095411 0.916142 0.000000 -0.400855 255 255 255 1.000000
0.230801 -0.192750 0.105761 -0.907061 -0.140110 -0.397000 199 231 241 0.500000
0.255873 -0.555253 0.043883 0.673162 -0.739254 -0.018852 208 241 250 0.500000
0.043802 0.977811 -0.056757 0.496689 0.000000 -0.867928 172 200 209 0.500000
0.039667 -0.837097 -0.039953 0.014017 -0.999731 -0.018461 209 241 249 0.500000
-0.164455 0.703836 -0.126449 0.703161 -0.398635 0.588774 211 244 252 0.500000
-0.229684 0.376464 0.039375 -0.965295 -0.232047 0.119828 209 245 255 0.500000
0.035958 0.512741 -0.246976 -0.093602 0.588781 0.802854 213 245 254 0.500000
0.018332 -0.837097 -0.087274 0.004220 -0.998937 -0.045911 211 243 252 0.500000
-0.222372 -0.682393 0.068517 0.939099 0.284567 -0.192653 213 245 254 0.500000
-0.215619 -0.764218 0.097312 0.915478 0.177383 -0.361158 211 243 252 0.500000
0.072782 0.191226 0.215922 0.309770 0.000000 0.950811 139 204 224 1.000000
-0.212564 -0.390578 -0.121165 0.203672 -0.769077 0.605837 207 239 245 0.500000
0.150531 0.304223 -0.157100 -0.663870 0.000000 0.747848 255 255 255 1.000000
-0.207751 0.024904 -0.023126 -0.990777 0.000553 -0.135505 212 242 254 0.500000
-0.064837 0.280925 0.212071 0.331397 0.031907 -0.942952 184 215 222 0.500000
-0.063881 -0.837097 0.015589 -0.029086 -0.999572 0.003073 214 247 251 0.500000
0.228495 -0.628434 0.137238 0.863152 -0.159704 0.479023 213 245 254 0.500000
-0.048022 0.537766 0.256957 -0.215018 0.096333 0.971847 217 247 254 0.500000
-0.062494 -0.033490 0.213325 0.316008 -0.170528 -0.933306 211 243 255 0.500000
0.107435 0.099738 -0.187109 0.467368 0.000000 -0.884063 54 180 243 1.000000
-0.255024 -0.522234 0.018379 -0.932196 0.349580 0.093835 178 206 213 0.500000
-0.224077 -0.760135 -0.059525 0.883406 0.434746 0.174901 211 243 254 0.500000
0.263872 -0.514555 -0.046046 0.978744 -0.024002 -0.203674 212 244 252 0.500000
-0.203486 -0.149684 0.114997 0.354017 -0.743574 -0.567247 213 245 253 0.500000
-0.129153 0.604208 -0.195852 0.525222 -0.390146 0.756259 217 248 254 0.500000
0.110913 -0.204423 0.230864 0.410821 0.111598 0.904860 172 206 214 0.500000
-0.083568 0.227702 -0.189228 0.417836 0.026485 0.908136 211 243 254 0.500000
0.124255 -0.260426 0.231299 0.463304 0.112247 0.879062 211 243 252 0.500000
-0.229581 -0.739410 -0.051488 0.727751 0.685187 0.029976 215 244 252 0.500000
-0.054817 0.991305 0.005157 0.000000 -1.000000 0.000000 201 233 240 0.500000
-0.088652 -0.186531 0.216259 -0.416879 0.102725 0.903139 144 174 184 0.500000
0.055015 0.321264 -0.206807 -0.228717 0.000000 0.973493 255 255 255 1.000000
-0.205528 -0.815973 0.097872 0.876578 0.296613 -0.378988 212 244 255 0.500000
-0.226845 -0.198428 0.081611 -0.939749 0.144799 0.309686 212 237 245 0.500000
0.179401 -0.394076 0.195650 -0.470745 0.857942 -0.205754 211 241 250 0.500000
0.260562 0.443881 0.001152 0.982656 -0.184051 -0.022634 212 243 250 0.500000
-0.212228 -0.114022 0.008860 0.815347 -0.578916 -0.008127 207 238 245 0.500000
0.085958 -0.837097 0.119184 0.031868 -0.998478 0.045006 213 245 252 0.500000
-0.098423 0.655986 0.216163 0.305469 -0.641447 -0.703729 207 239 250 0.500000
-0.142055 0.657835 -0.172483 0.079023 0.965425 -0.248415 215 241 251 0.500000
0.196979 -0.099023 -0.120688 -0.798505 -0.217160 0.561454 178 206 216 0.500000
0.237768 -0.814761 -0.014457 0.965769 -0.241508 -0.094677 210 243 254 0.500000
0.221791 0.050219 -0.022165 -0.991087 0.004504 0.133138 211 242 248 0.500000
0.227699 -0.616365 -0.116341 0.190261 0.758077 -0.623795 211 243 255 0.500000
-0.003303 0.838989 -0.112287 -0.067335 0.724684 -0.685784 180 213 218 0.500000
-0.042177 0.105886 0.218338 -0.227260 0.003298 0.973829 222 250 252 0.500000
-0.205635 0.122532 0.049042 0.982749 0.011680 -0.184577 214 245 254 0.500000
0.248739 0.610367 -0.035336 0.945574 0.263286 -0.191231 216 241 250 0.500000
-0.030563 0.595401 0.252911 0.124335 -0.603677 -0.787474 206 238 248 0.500000
0.218831 -0.255715 0.116868 0.816540 0.248939 0.520857 211 244 251 0.500000
0.088848 0.854174 0.069909 0.536530 0.739133 0.407208 209 241 251 0.500000
-0.239858 -0.234676 0.008046 -0.487151 0.873239 0.011715 131 160 169 0.500000
0.224609 0.177748 0.003256 -0.999846 0.000000 0.017559 255 255 255 1.000000
0.136905 0.400352 0.202195 -0.469802 0.681205 -0.561468 209 241 252 0.500000
-0.174776 0.598323 0.176577 -0.723701 0.100113 0.682814 212 244 253 0.500000
-0.173270 0.742789 -0.068366 0.803449 -0.482453 0.348869 211 242 249 0.500000
-0.194528 -0.089375 -0.097929 -0.866749 0.188034 -0.461941 216 243 251 0.500000
0.197413 0.669756 0.130500 0.839886 -0.542360 -0.020911 212 244 255 0.500000
-0.210057 0.011690 0.008641 0.999631 0.005304 -0.026624 205 237 247 0.500000
0.052320 0.617045 -0.221131 -0.193349 0.353296 0.915313 212 244 253 0.500000
0.248188 -0.487695 -0.091199 0.439770 0.704441 -0.557104 211 243 252 0.500000
0.071385 -0.625240 -0.241259 -0.248336 0.061235 0.966737 204 232 237 0.500000
0.017129 -0.239727 0.257651 -0.039880 -0.110347 -0.993093 221 248 254 0.500000
0.002339 -0.413939 0.256320 0.018028 0.245523 -0.969223 211 241 251 0.500000
0.036168 -0.054164 -0.210657 -0.136413 -0.165542 0.976723 212 244 253 0.500000
-0.203331 -0.359578 0.161226 0.801490 -0.066589 -0.594289 227 251 252 0.500000
0.039249 0.838467 0.124671 -0.182346 -0.722557 -0.666830 209 243 254 0.500000
0.059878 0.962011 0.074986 -0.614577 -0.061148 -0.786484 49 49 255 1.000000
0.214646 0.159718 -0.054787 -0.957783 0.019689 0.286816 212 244 253 0.500000
0.082887 0.135252 -0.199036 0.354402 0.000000 -0.935093 3 59 192 1.000000
0.255539 -0.705905 0.000925 0.660228 0.748863 -0.057476 209 241 250 0.500000
-0.063540 -0.550362 -0.244254 0.265174 -0.276340 0.923753 229 254 255 0.500000
-0.121613 0.114332 0.188155 -0.572372 0.000000 0.819994 2 209 254 1.000000
-0.017433 0.008625 0.222741 0.115982 0.000208 -0.993251 213 244 255 0.500000
0.266036 -0.436131 -0.025599 -0.816714 0.576668 0.020802 211 241 249 0.500000
-0.129193 -0.124733 -0.182113 0.565873 -0.178167 0.805012 207 242 250 0.500000
-0.187418 -0.125704 0.138369 0.556482 -0.530795 -0.639206 211 243 252 0.500000
0.005253 -0.263638 0.260501 0.008752 -0.110291 -0.993861 160 195 199 0.500000
0.231083 -0.754051 0.097876 -0.536396 0.840457 0.076883 210 242 251 0.500000
0.113702 -0.837097 0.007687 0.050148 -0.998712 -0.007740 212 244 255 0.500000
0.202483 -0.609417 0.158640 0.741358 -0.626939 0.239450 207 238 247 0.500000
0.063876 0.324324 0.223802 0.252262 -0.329307 0.909901 210 242 251 0.500000
0.022023 0.202022 -0.208399 -0.083880 -0.000287 0.996476 195 222 231 0.500000
0.206767 0.327881 0.093772 -0.919016 0.000000 -0.394220 255 255 255 1.000000
0.136148 -0.837097 -0.082216 0.065692 -0.996613 -0.049466 210 244 254 0.500000
0.006397 0.518019 -0.249762 -0.002709 0.985926 -0.167160 217 249 255 0.500000
0.109966 -0.065149 0.204696 0.448588 0.172264 0.876980 213 243 252 0.500000
-0.247716 0.519192 -0.016163 0.995371 -0.029842 0.091360 211 243 252 0.500000
-0.209006 0.038814 0.021656 -0.997217 -0.005469 0.074359 216 249 250 0.500000
-0.023321 0.928453 0.006034 0.000000 1.000000 0.000000 49 49 255 1.000000
0.113355 0.594126 -0.218413 0.428859 0.100748 -0.897736 216 248 254 0.500000
-0.208192 0.012211 0.032005 0.993145 0.003363 -0.116839 216 248 255 0.500000
-0.136356 -0.837097 0.081135 -0.068819 -0.996496 0.047536 213 240 245 0.500000
-0.226475 -0.788034 -0.029240 0.964927 0.216027 0.149157 208 240 250 0.500000
-0.022350 -0.837097 0.172682 -0.013018 -0.997046 0.075690 171 201 211 0.500000
-0.135659 -0.102041 0.186929 -0.407934 0.575664 0.708661 122 149 152 0.500000
0.096344 0.337969 -0.192498 -0.417026 0.000000 0.908895 255 255 255 1.000000
0.234621 -0.470496 0.138832 0.894813 -0.311439 0.319867 212 244 253 0.500000
0.233747 -0.549526 -0.122445 -0.865658 0.035309 0.499390 208 240 249 0.500000
0.099063 -0.321260 -0.233668 0.358427 0.054353 -0.931974 212 244 253 0.500000
0.252607 -0.615740 -0.069834 -0.952417 0.079451 0.294262 212 244 252 0.500000
-0.185053 0.700049 -0.098314 -0.506292 0.708429 -0.491729 185 217 226 0.500000
0.205233 -0.833880 0.093328 0.417831 -0.890116 0.181964 214 246 253 0.500000
-0.226834 0.579055 -0.051449 -0.853835 -0.518987 -0.040232 207 242 250 0.500000
-0.222003 0.395753 0.092360 -0.916747 -0.244965 0.315541 213 243 253 0.500000
-0.047354 -0.733894 -0.231462 -0.226713 -0.142641 -0.963460 212 243 253 0.500000
-0.140360 -0.630340 -0.186724 -0.572084 -0.533394 -0.623066 207 237 247 0.500000
0.046981 -0.724003 -0.235527 0.159091 -0.118747 -0.980096 213 242 252 0.500000
0.023555 0.997018 0.051268 0.022172 0.998518 0.049706 49 49 255 1.000000
0.106109 0.807448 -0.106420 0.487885 0.663436 -0.567292 218 251 255 0.500000
0.014145 0.928453 0.092222 0.000000 1.000000 0.000000 49 49 255 1.000000
0.251271 -0.239666 0.051482 0.500569 0.831587 0.240610 209 241 252 0.500000
0.200987 -0.750191 0.153824 0.786148 -0.164860 0.595645 211 243 252 0.500000
0.042645 0.067464 -0.206506 0.164269 0.002367 -0.986413 134 166 175 0.500000
0.171774 -0.793198 0.176733 0.584344 -0.670122 0.457688 212 244 253 0.500000
0.000109 -0.448376 0.270543 -0.028192 0.432132 -0.901370 211 243 252 0.500000
0.112613 0.159331 -0.181604 -0.487305 0.019486 0.873014 217 248 254 0.500000
0.156479 0.220523 0.164535 0.674814 -0.001318 0.737987 209 241 250 0.500000
0.095599 0.741457 0.184089 0.372812 0.465833 0.802503 207 239 250 0.500000
0.145927 0.796180 0.088831 -0.662994 -0.626091 -0.410425 187 216 224 0.500000
0.217905 -0.454864 0.164811 0.371729 0.657795 0.655075 211 243 254 0.500000
0.027715 0.922602 -0.063640 -0.279353 0.000000 0.960189 212 244 255 0.500000
-0.232279 -0.192601 0.057763 -0.966750 0.147957 0.208573 227 255 255 0.500000
-0.193124 -0.791433 -0.117785 0.776939 0.548018 0.309907 208 244 252 0.500000
-0.069840 -0.826666 -0.203840 -0.257077 -0.640693 -0.723481 212 244 253 0.500000
-0.209171 0.221673 0.020875 -0.996877 -0.026356 0.074439 214 244 252 0.500000
0.183154 0.144204 0.134361 -0.809813 0.018528 -0.586395 210 245 252 0.500000
0.123646 0.233148 -0.174843 -0.540458 0.027594 0.840918 211 242 251 0.500000
0.105046 0.470166 0.243786 -0.379256 0.124263 -0.916910 210 244 254 0.500000
-0.181400 0.369655 -0.136056 0.775044 0.315721 0.547382 211 243 252 0.500000
-0.188360 -0.070701 0.116229 -0.858664 0.187423 0.477042 209 237 244 0.500000
0.229000 -0.315398 -0.122928 0.859857 0.073582 -0.505204 215 248 255 0.500000
-0.254980 -0.536990 0.009728 -0.496397 -0.865736 -0.063954 216 247 252 0.500000
-0.200267 -0.178796 0.133595 0.851018 -0.132402 -0.508172 212 242 255 0.500000
0.198685 0.362827 -0.128569 0.779552 -0.305222 -0.546936 131 164 169 0.500000
-0.246835 -0.273079 0.007728 0.987733 -0.155554 -0.013661 201 237 241 0.500000
-0.139511 -0.263199 -0.198642 0.575553 -0.113488 0.809851 196 227 235 0.500000
0.133774 0.341906 -0.184095 0.521402 -0.329393 -0.787172 207 239 247 0.500000
-0.015079 -0.656707 -0.237698 0.053053 -0.777018 0.627239 215 245 255 0.500000
-0.178336 0.124799 -0.116881 0.827985 0.000000 0.560750 255 255 255 1.000000
-0.242110 -0.554961 0.023437 -0.786367 -0.617650 0.011645 212 242 251 0.500000
-0.177560 0.302576 0.122436 -0.811419 -0.146414 0.565828 209 240 245 0.500000
0.242306 0.375154 -0.031627 -0.957388 0.245142 0.152691 206 237 244 0.500000
-0.074649 -0.632329 0.242317 -0.180709 -0.887344 0.424223 216 248 254 0.500000
0.170779 0.037943 -0.133993 0.756619 0.001661 -0.653853 212 244 253 0.500000
0.028057 0.049567 0.223008 -0.095901 0.008558 -0.995354 217 249 254 0.500000
-0.116047 0.066948 0.192539 0.545869 0.000000 -0.837870 255 255 255 1.000000
0.239710 0.358188 0.029442 0.962871 -0.256703 0.083565 214 246 255 0.500000
-0.062228 -0.748028 -0.213276 -0.241126 -0.693866 -0.678534 211 243 255 0.500000
0.058842 0.118940 0.220746 0.245440 0.000000 0.969412 0 191 250 1.000000
0.206667 -0.605598 -0.144750 -0.545107 0.836984 -0.048130 213 245 253 0.500000
0.039687 0.979720 0.074156 0.440447 0.000000 0.897779 217 249 255 0.500000
-0.193796 0.028146 -0.073937 -0.928964 -0.003457 -0.370154 213 245 253 0.500000
-0.217409 -0.252746 0.098438 -0.451997 0.726208 0.517996 213 245 255 0.500000
0.224535 -0.819790 -0.065759 -0.858107 0.424733 0.288538 209 243 255 0.500000
-0.040430 -0.167499 0.243955 0.192857 -0.181079 -0.964374 129 156 158 0.500000
0.222050 -0.105722 -0.022148 0.982158 -0.166443 -0.087537 208 241 251 0.500000
-0.218750 0.455201 0.100082 -0.747732 -0.662709 0.041390 213 243 253 0.500000
-0.180693 0.626574 -0.139654 0.897250 0.333793 0.289007 215 241 248 0.500000
0.250069 -0.280061 0.082989 -0.636911 -0.578298 -0.509819 203 231 237 0.500000
-0.199552 0.683907 0.047917 -0.884773 0.425615 0.189813 130 158 166 0.500000
0.265635 -0.435195 0.003807 -0.371997 0.928218 -0.005536 177 209 218 0.500000
0.134934 -0.459019 0.237457 -0.483385 0.002928 -0.875403 214 246 254 0.500000
0.016466 -0.346920 0.266949 -0.034621 -0.053094 -0.997989 140 172 180 0.500000
0.245356 -0.751437 -0.034417 0.292976 -0.939687 0.176506 212 244 255 0.500000
-0.034100 0.921274 0.069200 0.554704 0.000000 -0.832048 191 217 225 0.500000
0.241201 -0.443405 -0.112263 0.888425 0.019258 -0.458617 220 251 255 0.500000
0.217028 0.333717 0.065938 -0.963686 0.000000 -0.267038 255 255 255 1.000000
0.042516 0.455487 -0.243867 0.129521 -0.487955 -0.863206 212 244 254 0.500000
0.186615 0.284354 0.128713 -0.826311 0.033196 -0.562236 211 244 254 0.500000
0.125723 0.559292 0.231248 -0.471341 -0.113485 -0.874619 215 247 255 0.500000
0.079014 0.469466 0.252915 -0.270845 0.126599 -0.954262 213 244 255 0.500000
0.212098 -0.483406 0.172606 -0.051779 0.922737 0.381936 214 245 252 0.500000
0.251534 -0.732872 0.014568 0.380896 -0.924150 -0.029415 207 237 241 0.500000
-0.207552 -0.652714 0.144116 -0.840980 -0.099421 0.531853 211 243 252 0.500000
-0.030018 0.314117 -0.209896 -0.165411 -0.341713 -0.925133 219 247 255 0.500000
0.223055 0.317908 -0.018503 0.993183 0.000000 -0.116564 1 113 209 1.000000
-0.217583 0.650996 -0.064230 0.949295 -0.150504 0.276022 213 244 254 0.500000
-0.039720 0.510352 0.255835 0.075672 0.929771 -0.360277 210 244 254 0.500000
0.104113 -0.107206 -0.200900 0.406394 0.189025 -0.893931 208 236 245 0.500000
0.158934 0.695837 -0.152004 -0.596777 -0.440169 0.670901 212 244 252 0.500000
0.121410 0.161790 0.193296 -0.530957 0.000000 -0.847399 255 255 255 1.000000
0.134053 -0.521421 0.222693 0.477490 -0.497744 0.724054 213 243 252 0.500000
-0.073084 0.105085 -0.193571 -0.369836 -0.013943 -0.928992 212 244 253 0.500000
-0.245877 -0.494141 0.079643 0.963911 0.026045 -0.264948 211 243 252 0.500000
-0.051602 -0.503571 0.263843 0.223470 0.004375 -0.974701 211 242 249 0.500000
-0.214841 -0.067199 -0.017499 -0.974633 0.193125 -0.113105 218 248 250 0.500000
-0.194938 -0.837097 0.038889 0.102549 0.994638 -0.013403 212 244 255 0.500000
-0.059820 -0.458501 0.261986 0.256019 0.003991 -0.966663 195 228 235 0.500000
-0.233355 -0.745966 0.041404 -0.974445 -0.177370 0.137830 210 243 251 0.500000
-0.168833 -0.812995 0.159259 0.749574 0.187254 -0.634882 207 232 238 0.500000
-0.117733 -0.389779 0.237830 0.222320 -0.757802 -0.613441 206 236 243 0.500000
0.086042 0.179894 -0.197503 -0.369192 0.000000 0.929353 255 255 255 1.000000
-0.198022 0.727349 0.022483 0.801976 -0.593010 -0.071933 209 235 246 0.500000
-0.216879 0.460965 0.130479 0.848462 -0.052533 -0.526642 212 244 253 0.500000
-0.215892 0.368276 0.087196 -0.913559 -0.255612 0.316343 208 242 253 0.500000
0.027108 -0.440584 0.269909 0.074279 -0.004057 0.997229 128 161 167 0.500000
0.244373 0.606464 -0.060395 0.927358 0.240574 -0.286587 212 243 254 0.500000
-0.033088 -0.610862 -0.247212 -0.137101 -0.203089 -0.969514 212 244 253 0.500000
-0.002644 -0.553896 -0.253615 0.032907 0.056280 0.997873 162 191 199 0.500000
-0.091684 -0.477434 0.251370 0.377810 0.003851 -0.925875 210 240 249 0.500000
-0.225085 -0.134426 -0.033991 0.969472 -0.157713 0.187749 213 239 251 0.500000
0.000067 0.928453 -0.035587 0.000000 1.000000 0.000000 49 49 255 1.000000
-0.036089 -0.814692 -0.220617 0.185249 0.273855 0.943762 210 240 249 0.500000
0.268816 -0.514641 -0.010794 -0.997266 0.021060 0.070833 208 241 247 0.500000
0.148007 0.146264 -0.159287 0.652418 0.000000 -0.757859 0 175 235 1.000000
-0.158506 0.749256 0.107845 0.744455 -0.495099 -0.447955 209 245 254 0.500000
0.264384 -0.404336 -0.042258 0.980301 0.033436 -0.194661 211 243 254 0.500000
0.149065 -0.078689 0.181538 0.439902 0.541672 0.716294 209 243 254 0.500000
0.162538 0.113986 0.160318 0.717449 0.000000 0.696611 1 167 239 1.000000
0.068757 -0.837097 -0.018475 -0.025815 0.999622 0.009419 213 242 252 0.500000
0.240873 -0.716794 0.088329 -0.143238 0.931747 0.333663 203 235 243 0.500000
0.095707 -0.547386 -0.237698 0.287410 0.485799 -0.825467 191 221 225 0.500000
0.158880 -0.837097 -0.078137 -0.075833 0.996064 0.045898 209 241 251 0.500000
-0.169246 -0.475601 0.202865 0.643117 -0.144948 -0.751925 213 245 253 0.500000
0.004323 -0.188469 -0.222224 0.011416 -0.027440 0.999558 212 244 252 0.500000
-0.012346 -0.740370 -0.235983 0.075244 0.419774 0.904505 212 243 253 0.500000
-0.206088 0.199034 -0.032910 0.981446 -0.001282 0.191735 126 157 163 0.500000
-0.229093 -0.182043 -0.049545 0.914882 -0.306602 0.262653 168 197 206 0.500000
0.179575 -0.837097 0.074136 0.077973 -0.996470 0.031113 204 236 245 0.500000
-0.000669 0.928453 -0.064311 0.000000 -1.000000 0.000000 49 49 255 1.000000
-0.115303 0.132428 0.192900 0.542759 0.000000 -0.839888 255 255 255 1.000000
-0.121266 -0.244996 -0.208068 -0.494550 0.162099 -0.853900 202 231 239 0.500000
0.117493 0.292316 -0.182222 -0.511605 0.000000 0.859221 255 255 255 1.000000
0.244926 0.582113 -0.004969 -0.982615 0.182761 0.032655 207 241 253 0.500000
0.209506 -0.078395 -0.091331 -0.879202 -0.211483 0.426942 215 242 246 0.500000
0.151616 -0.279988 0.216712 -0.581755 0.305607 -0.753767 219 250 255 0.500000
0.232999 -0.826311 0.000091 -0.779614 0.625889 0.021573 212 244 253 0.500000
0.219487 -0.551977 -0.144474 0.659628 0.267218 -0.702485 216 246 255 0.500000
-0.174092 -0.600798 0.192216 0.614716 -0.213639 -0.759265 195 224 232 0.500000
-0.115896 0.833658 -0.024931 0.679619 -0.714951 0.164202 212 245 250 0.500000
0.013603 0.588452 -0.242866 0.040104 0.058544 -0.997479 211 237 248 0.500000
0.264578 -0.419630 0.058839 0.981510 0.033757 0.188413 209 241 250 0.500000
-0.061987 0.214087 0.217863 -0.301916 0.000000 0.953335 5 188 255 1.000000
-0.237070 -0.332217 -0.062041 0.530554 0.838203 -0.126210 212 245 255 0.500000
0.199643 -0.338321 0.180589 0.777765 -0.296732 0.554105 209 244 255 0.500000
0.171472 0.092232 0.148266 -0.753373 0.000648 -0.657593 211 243 252 0.500000
-0.058134 0.911686 0.042966 -0.878499 0.000000 0.477743 212 237 247 0.500000
-0.063373 0.761152 -0.164406 0.294065 -0.517945 0.803280 202 234 247 0.500000
0.057959 -0.474566 0.265564 0.191683 -0.004172 0.981448 212 243 252 0.500000
-0.212831 0.233471 0.042728 0.986871 0.000000 -0.161513 255 255 255 1.000000
0.242644 -0.621138 -0.095371 0.900290 0.006341 -0.435244 212 243 253 0.500000
0.006583 0.755034 0.198181 -0.010012 0.508583 0.860955 207 243 253 0.500000
0.250433 -0.206838 -0.015238 0.875785 -0.482268 -0.020443 206 236 248 0.500000
0.172519 0.467743 -0.185477 -0.651451 0.093740 0.752878 208 240 249 0.500000
-0.034637 -0.472755 -0.252194 -0.162844 -0.058320 -0.984927 172 204 213 0.500000
0.204696 -0.835311 -0.069926 0.290390 -0.948682 -0.125202 204 237 240 0.500000
0.103396 -0.245263 -0.224103 0.290060 -0.860730 -0.418341 209 242 252 0.500000
-0.068575 0.391464 0.225270 -0.303369 -0.457136 0.836058 212 244 255 0.500000
-0.170895 -0.661802 0.188230 0.715910 0.432544 -0.548067 214 242 252 0.500000
-0.050209 0.726648 -0.189708 0.243216 -0.426966 0.870945 206 238 248 0.500000
-0.196007 0.129233 -0.068364 0.936170 0.010362 0.351396 210 240 251 0.500000
0.214105 -0.187642 -0.121025 0.912878 -0.376982 -0.156649 212 244 250 0.500000
0.153931 0.736632 -0.128380 -0.648903 -0.458199 0.607436 210 242 252 0.500000
0.092113 -0.547217 0.253684 -0.253270 -0.542699 -0.800832 219 252 255 0.500000
-0.178651 -0.754326 -0.148108 -0.692730 0.131605 -0.709088 207 239 248 0.500000
-0.168015 0.044550 -0.120492 -0.809752 -0.006491 -0.586736 204 234 241 0.500000
0.210666 -0.090104 0.109371 0.874194 0.188450 0.447517 146 178 185 0.500000
0.053112 0.301635 -0.207174 0.220125 0.000000 -0.975472 0 29 150 1.000000
0.092034 -0.530933 -0.225423 -0.341018 0.010616 0.939997 212 243 254 0.500000
-0.133759 0.741907 0.146254 0.629671 -0.471120 -0.617705 214 248 254 0.500000
0.042653 0.140654 -0.206504 -0.164328 -0.004125 0.986397 211 244 250 0.500000
-0.143739 0.108064 -0.156802 0.671377 0.000000 0.741116 255 255 255 1.000000
0.201143 -0.596700 0.178854 -0.704386 0.572886 -0.419096 191 216 226 0.500000
0.165630 -0.837097 0.118247 -0.081732 0.994980 -0.057753 212 243 253 0.500000
0.011899 0.185785 0.226737 0.032514 0.000000 0.999471 1 189 248 1.000000
-0.201477 -0.668450 -0.135328 -0.758811 0.134709 -0.637228 175 208 217 0.500000
0.105907 -0.586704 -0.232250 0.382356 -0.060550 -0.922029 211 244 253 0.500000
-0.209847 0.533068 -0.109120 -0.445468 0.637529 -0.628582 208 240 247 0.500000
0.208938 0.381057 -0.124391 -0.794743 0.336055 0.505422 212 244 253 0.500000
-0.202552 -0.017976 0.061885 -0.968132 -0.000993 0.250437 217 245 251 0.500000
-0.004840 -0.837097 0.149449 0.003241 0.997482 -0.070841 132 165 171 0.500000
0.151748 -0.515706 0.215158 0.449180 -0.755600 0.476766 129 161 170 0.500000
-0.180406 0.051428 0.125276 -0.842982 0.000000 0.537941 0 108 221 1.000000
-0.016209 0.339242 0.235278 0.095883 0.326137 -0.940447 189 222 227 0.500000
0.257559 0.531211 0.059146 -0.979840 -0.018958 -0.198884 211 243 251 0.500000
-0.179274 0.429938 0.176736 -0.723402 -0.105677 0.682292 210 245 255 0.500000
-0.200727 -0.813357 -0.097678 -0.879532 -0.206620 -0.428639 214 243 249 0.500000
0.041440 0.065293 0.221879 0.157124 -0.010184 0.987526 215 247 254 0.500000
-0.106850 0.734634 0.173347 -0.503719 0.457161 0.732988 212 245 255 0.500000
0.069903 -0.727699 -0.230193 -0.255196 0.118542 0.959595 210 239 251 0.500000
-0.206179 0.111719 0.068993 0.959566 0.000000 -0.281482 255 255 255 1.000000
0.146903 -0.516399 -0.203354 0.431834 -0.757824 -0.489103 211 243 252 0.500000
0.145422 0.589929 0.214218 0.562437 0.132600 0.816138 212 244 253 0.500000
-0.160350 -0.733345 0.167575 -0.719697 -0.425157 0.548887 212 244 252 0.500000
0.054841 0.801297 0.156182 0.223918 0.646935 0.728928 212 244 253 0.500000
0.098307 0.573609 0.242329 0.358050 0.098547 0.928487 211 244 252 0.500000
0.218274 -0.426117 0.163925 -0.786516 0.002579 -0.617565 200 231 237 0.500000
0.215668 0.214852 0.065614 -0.963070 0.024026 -0.268177 224 252 255 0.500000
-0.144720 0.431209 -0.192126 -0.602187 -0.141722 -0.785675 212 243 253 0.500000
-0.220152 -0.552408 -0.121438 -0.876321 -0.078414 -0.475302 211 244 253 0.500000
-0.061902 0.294296 0.217880 0.301545 0.000000 -0.953452 255 255 255 1.000000
-0.153488 -0.435197 -0.200909 0.606107 0.001317 0.795382 212 243 252 0.500000
-0.169780 0.232150 -0.126754 -0.793472 0.000000 -0.608607 0 194 251 1.000000
-0.189900 0.066687 0.097788 0.908996 0.010004 -0.416684 207 239 248 0.500000
0.239429 -0.755793 0.072222 -0.613990 0.789308 -0.003121 210 242 254 0.500000
0.202031 0.490487 0.173892 -0.761858 0.138001 -0.632873 217 250 255 0.500000
0.174126 0.755914 -0.082636 0.754468 0.515223 -0.406600 211 243 252 0.500000
0.016802 -0.573749 -0.252384 -0.042012 0.061108 0.997247 214 244 254 0.500000
-0.162010 -0.115923 0.166630 0.711947 -0.187286 -0.676798 132 165 170 0.500000
0.185546 -0.071531 0.142382 0.571908 0.504191 0.647080 204 236 245 0.500000
-0.208588 0.268720 -0.013614 0.992863 -0.002822 0.119226 212 244 253 0.500000
0.171926 -0.834428 -0.130202 -0.311084 0.911833 0.267932 217 249 255 0.500000
0.178832 -0.837097 -0.057768 -0.075408 0.996649 0.031699 142 174 184 0.500000
0.187681 0.631366 0.148935 0.410677 0.663125 0.625787 207 236 242 0.500000
-0.218653 -0.683594 -0.072051 -0.790048 -0.607241 -0.084164 172 204 211 0.500000
-0.227185 -0.759670 0.062205 -0.671915 -0.733654 -0.101399 213 245 253 0.500000
-0.092894 0.615342 0.216484 0.451171 0.036094 -0.891707 211 243 252 0.500000
0.207425 0.234912 0.092418 -0.921691 0.000000 -0.387924 255 255 255 1.000000
-0.196285 -0.601971 0.166738 0.795603 0.427679 -0.429077 212 246 254 0.500000
0.111822 -0.526254 0.232860 -0.416629 0.281662 -0.864342 143 173 183 0.500000
0.168623 0.409232 -0.165771 0.563090 -0.741952 -0.363919 212 244 253 0.500000
-0.115417 0.647097 -0.195419 0.322070 0.901159 0.290144 216 245 254 0.500000
0.193201 0.336399 0.137750 -0.778076 0.315288 -0.543315 212 244 253 0.500000
0.233449 -0.226707 -0.094175 -0.929687 0.299339 0.214659 208 240 249 0.500000
0.154257 0.407680 0.204455 0.395684 -0.861827 0.317314 211 243 254 0.500000
0.081825 -0.549369 -0.242574 -0.260601 -0.366666 0.893109 211 244 253 0.500000
-0.230302 0.608661 -0.058911 -0.934856 0.232121 -0.268634 204 230 240 0.500000
0.252488 0.421023 0.049240 -0.963816 0.217303 -0.154395 221 248 254 0.500000
-0.197639 -0.126604 -0.073194 0.883797 -0.260919 0.388362 212 243 253 0.500000
-0.136653 0.765536 0.121799 -0.664403 0.530303 0.526638 205 237 244 0.500000
0.041290 0.391770 0.236113 0.130089 -0.571736 0.810059 211 243 252 0.500000
-0.169085 -0.098883 0.153551 -0.750269 0.194428 0.631897 212 243 251 0.500000
-0.204917 -0.263454 -0.106531 0.602832 -0.514926 0.609463 213 245 255 0.500000
0.053895 -0.837097 -0.168200 -0.019724 0.996956 0.075431 210 241 253 0.500000
0.067271 0.255043 -0.200594 0.278211 -0.020796 -0.960295 212 244 253 0.500000
-0.083282 -0.775258 0.228926 -0.030260 0.939319 0.341709 211 243 252 0.500000
0.250534 -0.526245 -0.089541 -0.928776 0.031469 0.369303 215 247 255 0.500000
0.156272 -0.142881 -0.176379 0.489464 -0.818397 -0.301084 203 229 236 0.500000
0.245013 -0.474773 0.090471 0.681201 0.550736 0.482343 220 245 248 0.500000
0.218048 -0.188878 0.129733 -0.857829 -0.133005 -0.496426 210 245 255 0.500000
-0.129477 -0.776486 0.203686 -0.563856 -0.175176 0.807081 172 203 211 0.500000
-0.094457 -0.127155 -0.203079 -0.154223 -0.959964 -0.233848 209 244 255 0.500000
-0.197019 0.352591 -0.105132 0.843875 0.299032 0.445483 212 244 253 0.500000
0.101783 -0.828537 -0.194517 -0.293182 0.707795 0.642706 159 189 199 0.500000
0.179335 -0.365680 0.203074 -0.660780 -0.058502 -0.748296 198 230 240 0.500000
-0.155475 -0.524739 0.195678 -0.616557 0.153858 0.772130 210 244 255 0.500000
-0.025002 0.991305 0.054413 0.000000 1.000000 0.000000 217 244 254 0.500000
0.086807 -0.818435 -0.208025 -0.317823 0.369252 0.873293 208 240 250 0.500000
0.239076 -0.718963 -0.077457 0.931651 -0.151994 -0.330038 209 241 250 0.500000
-0.097991 0.145744 0.201312 0.467663 0.000000 -0.883907 255 255 255 1.000000
-0.103286 -0.178908 0.209311 0.501027 0.315540 -0.805858 211 243 254 0.500000
0.145376 0.116567 -0.158934 -0.641005 0.015673 0.767377 212 244 253 0.500000
0.232290 -0.293539 -0.113665 0.880173 0.076721 -0.468411 216 246 254 0.500000
-0.000775 -0.768304 0.238040 0.020903 -0.640960 -0.767290 126 152 161 0.500000
-0.093328 0.566286 -0.224248 0.392381 -0.099505 0.914405 134 154 164 0.500000
0.169450 -0.692293 -0.182678 0.231761 -0.962313 -0.142271 208 238 248 0.500000
0.117927 -0.000854 -0.178348 -0.512394 0.003091 0.858745 211 243 254 0.500000
-0.143059 0.699569 0.166950 -0.575116 0.476281 0.665130 209 241 251 0.500000
0.198713 0.091557 0.110349 0.882755 0.000000 0.469833 0 147 228 1.000000
-0.172384 -0.264809 -0.171249 -0.631422 -0.736779 -0.241792 211 243 253 0.500000
-0.013846 0.945173 0.090497 -0.989383 0.000938 -0.145330 49 49 255 1.000000
-0.215714 -0.230940 0.108238 0.610757 0.777999 0.147286 212 244 253 0.500000
-0.051244 -0.837097 -0.179220 -0.024329 -0.996612 -0.078569 225 249 253 0.500000
0.259587 -0.597399 -0.049175 -0.921707 0.364919 0.131490 212 242 253 0.500000
-0.018296 0.177201 0.226288 -0.104594 0.000000 0.994515 0 195 246 1.000000
-0.121502 -0.471054 0.237082 -0.488718 -0.002984 0.872437 211 243 254 0.500000
0.218358 -0.386374 -0.123103 -0.683868 -0.365885 0.631231 193 222 228 0.500000
0.170595 -0.424148 0.209424 -0.170021 -0.879439 -0.444612 213 246 251 0.500000
-0.089822 0.280240 -0.192501 -0.428165 0.000000 -0.903701 1 2 140 1.000000
-0.130643 0.137649 0.174634 -0.637882 -0.017911 0.769926 127 158 165 0.500000
-0.036584 -0.051661 -0.207558 0.182653 -0.185321 0.965554 205 237 246 0.500000
0.180943 -0.618448 0.191302 -0.310899 0.950262 0.018528 204 238 252 0.500000
0.142347 0.573214 0.219425 0.534906 0.177371 0.826084 212 241 252 0.500000
0.222106 0.055359 0.033245 -0.992931 -0.002079 -0.118675 219 246 255 0.500000
-0.078613 0.932073 0.003863 0.999041 -0.008662 0.042929 49 49 255 1.000000
-0.207963 0.207663 0.034914 -0.992678 -0.018185 0.119412 213 242 255 0.500000
0.181002 0.765692 0.066682 -0.800333 -0.522178 -0.294612 133 165 174 0.500000
-0.140985 -0.661576 -0.198451 0.571437 0.115475 0.812481 204 235 237 0.500000
0.010018 0.691865 0.229147 0.017397 0.370872 0.928521 217 248 254 0.500000
0.087937 0.802792 -0.125028 -0.398564 -0.647721 0.649311 220 249 254 0.500000
0.137726 -0.682653 -0.207037 0.518709 -0.115930 -0.847055 165 194 205 0.500000
-0.221831 0.623130 0.087157 0.918578 -0.225840 -0.324361 209 245 255 0.500000
-0.210092 0.304013 0.000080 -0.984850 -0.166380 -0.048861 210 243 249 0.500000
-0.222334 0.523281 0.123616 -0.529373 0.608912 0.590754 212 244 255 0.500000
0.237976 -0.679729 -0.050086 -0.905604 0.397806 0.147080 185 215 225 0.500000
0.256019 -0.308010 0.071075 0.871785 -0.487899 0.044103 213 243 252 0.500000
0.136949 0.652186 -0.188657 -0.518046 -0.334335 0.787305 209 245 254 0.500000
-0.186699 -0.782219 -0.130204 0.793267 0.219604 0.567893 206 236 244 0.500000
-0.030160 -0.834892 0.217919 -0.056101 -0.931364 0.359741 211 243 249 0.500000
0.225770 -0.073035 -0.041453 0.953883 0.208494 -0.215958 207 238 247 0.500000
-0.227633 0.622280 -0.055495 0.947270 -0.204676 0.246552 159 191 200 0.500000
-0.218518 -0.226030 -0.075016 -0.741941 -0.669524 0.035499 211 244 250 0.500000
0.074534 0.125343 0.215316 0.317782 0.000000 0.948164 0 188 248 1.000000
-0.167204 0.321218 0.144786 0.780645 0.000000 -0.624975 255 255 255 1.000000
-0.215975 -0.255198 -0.087830 0.430768 -0.721850 0.541637 211 241 250 0.500000
0.132001 0.779393 -0.113812 -0.587586 -0.572212 0.572115 212 244 251 0.500000
-0.194785 -0.491191 -0.161375 0.804000 0.266498 0.531566 215 247 255 0.500000
0.033944 0.369949 0.242618 -0.095141 -0.568433 -0.817210 181 210 217 0.500000
0.205189 0.533039 0.149950 -0.863067 0.362170 -0.352062 216 248 254 0.500000
-0.220279 0.670248 -0.029318 -0.956672 0.250067 -0.149147 126 153 164 0.500000
-0.054951 -0.299218 0.242384 0.253435 0.243270 -0.936264 214 243 252 0.500000
0.206273 -0.423529 -0.163850 0.738285 -0.563553 -0.370597 214 247 251 0.500000
0.075383 -0.761107 0.224874 -0.275462 -0.225341 -0.934528 223 254 255 0.500000
0.095746 0.063767 0.207976 0.412645 0.000000 0.910892 0 187 244 1.000000
0.067747 -0.805475 -0.218164 0.252073 -0.201771 -0.946440 206 238 243 0.500000
0.037136 -0.837097 0.138180 0.013278 -0.997548 0.068713 212 244 255 0.500000
0.252630 -0.564426 -0.015977 -0.994666 -0.012525 0.102388 181 212 219 0.500000
-0.070471 -0.579180 0.255517 -0.299976 -0.094846 0.949220 196 226 235 0.500000
0.003479 0.239684 -0.209303 0.003277 -0.004824 -0.999983 202 234 247 0.500000
0.230537 0.335639 -0.031958 0.938885 -0.302206 -0.164823 213 249 252 0.500000
0.036239 0.943576 0.075584 0.394744 0.000000 0.918791 215 244 252 0.500000
0.205273 -0.770958 -0.126810 0.822720 -0.164263 -0.544195 210 244 255 0.500000
-0.074918 0.964631 0.032698 -0.949499 0.071280 0.305567 49 49 255 1.000000
-0.208800 0.554541 -0.127369 -0.904241 -0.291205 -0.312328 165 197 206 0.500000
-0.050756 -0.837097 -0.114828 0.024173 0.998295 0.053125 209 244 248 0.500000
0.119204 0.488029 0.229288 -0.220217 -0.807684 -0.546947 140 170 179 0.500000
0.088710 0.932363 -0.010723 0.469557 -0.000175 -0.882902 49 49 255 1.000000
0.161764 0.159736 -0.144547 0.722857 -0.000470 -0.690998 213 245 254 0.500000
-0.048046 0.867771 0.075242 0.422767 -0.754357 -0.502209 230 255 255 0.500000
-0.228481 -0.636870 -0.091810 -0.919693 -0.090409 -0.382088 211 243 253 0.500000
-0.011917 0.517118 0.264239 -0.072478 0.096000 0.992739 199 232 239 0.500000
-0.105521 0.629462 0.219348 -0.457096 -0.586874 0.668313 212 244 255 0.500000
0.066799 0.422244 0.249872 -0.238603 0.126365 -0.962861 212 244 255 0.500000
0.095136 -0.191512 0.220801 -0.327723 -0.408084 -0.852094 211 244 254 0.500000
0.243351 -0.645197 -0.088207 -0.586065 -0.607269 0.536426 211 243 254 0.500000
-0.012587 -0.717570 0.253843 -0.081035 -0.165998 0.982791 225 255 255 0.500000
0.089258 -0.486371 -0.242261 0.248040 0.393765 -0.885113 206 238 249 0.500000
-0.209308 0.677837 -0.024248 0.224316 -0.960186 0.166510 212 243 252 0.500000
-0.102833 0.690155 0.200825 -0.427308 0.471482 0.771435 204 232 237 0.500000
-0.208456 0.132233 0.028640 0.995116 0.012514 -0.097920 213 245 255 0.500000
0.213210 0.111651 -0.060257 -0.949837 0.014576 0.312405 212 244 253 0.500000
-0.239061 0.402344 0.005003 0.827512 0.561426 -0.004857 171 197 203 0.500000
0.006151 0.991305 0.024446 0.000000 1.000000 0.000000 206 238 247 0.500000
0.102011 -0.438331 -0.237843 -0.368807 0.004030 0.929497 219 248 254 0.500000
0.092278 -0.822899 0.218190 -0.332831 0.507071 -0.795048 215 247 254 0.500000
-0.050534 0.945528 -0.039270 0.772508 -0.000509 0.635005 220 249 255 0.500000
-0.191513 -0.305727 -0.155544 -0.772629 0.064426 -0.631581 210 243 252 0.500000
0.231463 -0.819837 0.057019 0.898208 -0.396155 0.190483 211 243 252 0.500000
0.219551 0.169389 0.049440 -0.981093 0.005027 -0.193472 212 244 253 0.500000
0.165745 -0.514266 -0.187789 0.562892 -0.649540 -0.511126 222 252 254 0.500000
-0.214764 0.108473 0.015680 -0.999240 0.000000 0.038977 13 203 249 1.000000
0.141910 -0.837097 0.110009 0.070142 -0.996405 0.047502 201 232 240 0.500000
